# 3D point list with one line of data per point:
#   POINT3D_ID, X, Y, Z, R, G, B, ERROR, TRACK[] as (IMAGE_ID, POINT2D_IDX)
# Number of points: 405, mean track length: 3.7164522058823528
3508 -4.3018083902604598 2.4879860420656463 9.7360597683023116 114 122 99 0.77614542096262784 10 7169 8 6251 9 6633
3589 -4.3865094141454968 -0.87694648032867717 8.6063735089319451 108 99 72 0.86143941115006517 9 5659 10 4611 8 6554 1 3073
3512 -0.61914065265831397 2.8919251675677669 12.95666195661933 110 112 107 0.15590424355574314 9 6608 8 6268 1 3761
3593 -4.6568496009928317 -0.82201295922275963 8.6772615434346907 139 112 100 0.78006571576909423 9 6101 10 6566 8 6564
3516 -3.6669833084685521 2.7391089902875403 10.855560688217095 189 189 187 1.3393413020010112 10 7217 8 6276 9 3280
3597 -3.359885261681212 -0.71777804446964455 9.0161055654774849 141 91 98 0.5428526928371713 9 5688 10 4659 8 6576 1 3336
3518 -4.7944643177944171 2.6789062844152145 10.141263198822775 132 134 121 0.81490680134878513 9 2454 8 6278 10 2452
4897 -1.1889279326135913 0.99864993395707424 10.955882870534641 2 2 7 1.949358605031341 6 3837 7 3832 2 3793 4 4540
3523 -2.4420851771748016 -2.0600519143830911 9.9220957755259924 203 199 189 1.3888786971977891 10 4230 9 3907 1 2159 6 1142
4176 -2.8812341961491761 2.9398228540851608 10.68068906203829 140 139 135 1.3774666671040254 3 408 6 614 7 935 2 633 4 1076 11 1119
3524 -2.6813523767541279 -0.68193017448680004 9.9218665321744766 129 96 103 0.92835150827776936 9 7382 10 4402 8 6319
3669 -1.2581508537248338 4.7096041297523472 9.7793651164668436 149 136 104 1.6682304057705186 10 139 1 81
3525 -2.6725576936398254 -1.9432090453773239 9.6357886433685582 119 117 90 1.2494190672048 3 3878 8 6321 6 3425 7 4992 2 3112
5932 -4.5292327095067701 2.8483771305757228 10.671342381925662 140 139 134 0.2635990302365227 7 6614 4 5498 11 6533
4703 -0.16835094513383778 1.1911685207534373 11.4330296649168 48 50 48 0.85857784282681804 6 1069 7 1512
3534 -5.30876568592842 4.1975078261410106 11.230728579331068 79 77 64 0.6246017239394126 9 4891 10 5388 8 6375
3539 -5.0549736839574599 -1.5486575734453547 8.9093283329290021 32 39 14 1.1207275778858048 9 5575 10 6439 8 6394
3540 -5.9116409942367101 4.4631085685680443 11.576130122610383 120 116 108 0.62496797523516046 9 4986 10 7517 8 6396
3749 -1.5874558459938162 3.1439348080395044 10.524517111171104 51 53 31 1.1869304744288542 3 639 1 381 6 545
5931 -3.9590921357194189 2.5999929903754655 11.056744013426142 132 133 128 0.77366102591990971 2 3423 7 6586 4 5492 11 5575 5 6107
3541 -5.7012894099828122 4.4121891814403282 11.297578838400872 85 81 72 0.071443963811093011 9 4983 8 6398 10 5434
4186 -2.8831669220060836 5.2260456675546987 9.0412910365067098 90 111 78 0.82641513084663298 3 696 6 692 7 561 2 504 4 547
3550 -5.9624182542103661 5.321092818959829 11.372647467378263 148 151 142 0.43274200626836062 9 6996 10 7685 8 6434
3552 -3.2448849072152486 4.653787168466498 9.4425993859238488 59 53 31 1.7346051934980704 9 5287 8 6436 10 7665
3697 -1.9699330504178505 2.2185530827457844 6.5044027622539327 51 50 30 0.94028598624013426 3 51 1 47
3555 -3.584787586806458 4.805704359616235 9.2639639315377575 104 90 87 0.24847969797986127 10 7712 8 6452 9 7016
4208 -2.4151876194206032 -2.1244158430729243 10.286849617691926 208 195 186 1.5674965783780905 3 1261 6 841 7 1280
3556 -2.6977734723128637 4.7949402958671685 9.2269218092605954 150 139 137 0.37323870669284598 9 7009 10 7711 8 6455
3701 -1.5018095247185546 6.3399658371642946 11.287223576693476 75 64 32 1.6224892882830848 8 74 1 59
3557 -2.0857678743090866 4.8940395297764478 9.3112966975816409 144 122 125 0.93534846960078122 3 3830 10 7730 8 6464
3560 -4.9372456962170999 5.6604388331650206 10.96652487759081 73 68 62 0.57664270730095446 10 3987 8 6477 9 3696
3705 -1.5698550865406968 4.216841649872868 9.283088054139192 199 190 191 0.13741527934365436 9 130 10 117 1 95
3564 -6.4891387077386469 5.947554977320535 11.373236667298357 114 111 103 0.33525462875429829 9 6112 10 5640 8 6483 1 3275
3709 -4.3753465707798522 2.7509088345403296 10.742783652812975 162 164 161 0.74253242828408239 6 111 4 82 11 73 5 97
4735 -2.5869732658530915 -1.8004203150284563 9.7073533991906764 177 153 145 1.7347243142570892 6 1988 7 1854 11 4090 5 2601
3566 -5.3607620851171705 6.0508676890251332 11.604756258929013 73 72 68 0.6636975790014642 9 6110 10 7790 8 6486
3568 -4.8305797233407901 6.0973347969791298 11.336514589690541 134 127 121 0.4002435262668782 9 7082 10 7807 8 6495
3649 0.39189499376958464 3.8783581767988484 13.543995018873618 111 114 95 1.6979726994021311 8 5219 10 3654 8 5216 1 3778
3571 -4.9069548141746511 6.1363161013908742 11.080935548633704 69 69 59 0.30893855278067156 9 7089 8 6499 10 7816
3572 -5.9060802406407902 6.4181259294324802 11.584934466136788 69 65 56 0.55264314651747526 9 5365 10 7820 8 6501 1 3846
3653 -5.0313893412213915 -2.0737023771290835 9.7515317119888305 34 32 6 1.2484084971604339 9 417 8 405 10 2375 8 3167 1 716
3573 -4.841599130125668 6.4501470748669476 11.282169010292073 55 50 40 0.45919884039332198 9 3744 10 4037 8 6502
4218 -3.153542374825578 5.1188715423987681 9.4139697962959197 6 6 0 1.5866333526310559 3 1330 6 957 7 1156
3576 -5.9151524819300088 6.9464241647404599 11.914865938846841 58 51 45 0.20387474352831406 9 3754 8 6507 10 4050
3657 -4.3798836063887059 1.8599992352657313 9.5759691198249222 149 156 137 1.4026180063695914 10 5278 8 4043 9 6390 8 4992
3580 -4.8490461102199616 7.1441676565990866 11.649473240377594 59 57 50 0.75251153028607176 9 5393 8 6517 10 4070
3661 -2.6069376665696087 2.2556381344106837 11.597857858555109 161 161 159 1.9506131973291305 10 4439 8 6149 9 2545 8 4086
3582 -3.6239631419052301 -1.4020935299766681 9.137342772331392 128 107 93 0.36438258341466589 9 6057 10 6482 8 6530
3584 -3.3014720898640313 -1.2261395050400965 9.0113367199832322 96 89 67 0.90616722277534523 9 5619 10 4569 8 6535
3594 -3.350400069317863 -0.79793939286535609 9.0185024912466911 134 92 102 0.60572675589196623 3 3918 8 6569 1 3330 6 5543 7 5458 2 3698 4 5232
3599 -4.623109778591969 -0.57718904336726296 8.843571044874782 121 106 87 1.2946318905882579 9 6133 8 6585 10 6616
4995 -2.5210570068226383 2.3865298401941781 11.450470136021455 179 180 172 0.23497504515563178 6 4086 7 4952 4 4770 11 4810 5 4772
3600 -4.266746939308744 -0.53363254657035053 8.5970376835879954 188 172 163 0.84903853625363468 9 6140 10 6621 8 6586
5013 -2.554145042272713 4.0531697564490798 9.6088032954398752 100 88 76 1.6293068441849208 3 4251 6 5045 7 5245 4 4337 11 7141 2 3626
3610 -2.2333244590037471 0.81478002044298625 12.099557162304764 45 44 49 0.38928935292284933 9 7437 8 6610 10 5019
4494 -2.5226209577483703 4.4104678528221051 9.3609326780140591 109 95 86 1.2370820161375933 3 3112 6 5083 7 4446
3615 -0.79079868761055694 1.8872281799290851 11.45781221008248 61 66 71 0.37250410747301815 9 6333 10 6863 8 6627
3616 -5.443148434878502 2.0344383116783811 12.0584282019677 77 75 62 0.23205391371771977 9 4741 10 6915 8 6628
3626 -2.0090507123799926 3.6125477134416251 10.051839103977757 167 156 160 0.6222587441520151 3 3035 9 6804 10 7403 8 6649 6 3079
3631 -3.3739588374009584 -0.66497150274999106 9.0392011763900157 111 64 69 1.2784551871663847 9 6121 10 4388 8 6662 9 2846
5330 -1.5857277016871436 0.83009871427329107 11.516604064150528 46 51 47 0.19330070430161467 1 2730 2 3404
5027 -2.041421473525824 0.20475828673865695 11.631981473385691 92 97 67 0.32818089805213108 6 4759 7 5527 2 3898
3632 -1.7848136679485347 -0.49644846656791936 12.590491977666137 40 37 44 0.38645122090608997 10 6692 8 6670 1 3241
5045 -1.2142272966127472 0.69816415450584879 11.060871126763475 6 5 21 1.127676026675541 6 5372 7 5924 4 3320 11 7095
3642 -6.4538395634460333 4.6514425360937386 12.444553313201958 133 133 123 0.32423739532387524 9 6897 10 7511 8 6702
5337 -7.6474511027139975 0.69887121953482689 10.206839693407696 66 65 47 1.4130106948468721 2 3575 1 2527 11 6190 5 5294
4526 -3.9589515104084207 -0.90280794525598396 6.9465596992116412 0 0 0 0.78432880061404719 1 805 3 848
3647 -0.81957260725787506 1.7284427318008309 11.57756148201373 60 62 77 0.36257431162629078 9 6268 10 6789 8 6743
3648 -1.6153463662184893 3.190567249053847 10.204031692531979 148 128 136 1.1492946289761623 9 6741 10 2483 8 2453 1 2290
3658 -1.4431699527761579 4.6699640983288591 9.4271757814304085 165 82 128 0.61588737711218444 10 2524 8 2854 9 3634 8 4503
3663 -0.68195219113145022 2.1594619093030896 12.363420264414406 127 132 128 1.5363365660778245 9 7552 8 4072 10 6946 8 6130
3680 -7.1241582840078772 0.60054647679944173 7.6481304287884253 84 82 69 0.084609026842132978 10 7962 8 2658
3690 -3.0813570862594517 4.4949658643793153 9.3829873402572748 26 34 13 1.5116411071103206 3 25 6 14 7 20
3695 -6.4720117548706497 7.6748686204630614 11.591826314972064 63 51 12 1.6318493614815783 3 36 10 36 6 48 7 49
5091 -7.4198715469360641 0.80561526834009956 9.6602701012574066 91 87 63 2.5134615523438386 3 1177 7 358
3696 -0.117804661361609 6.8886123100035768 12.410509301747663 71 62 33 0.71065780511171384 3 39 1 39
5109 -1.341862815353009 5.735647866493764 11.773747852551633 160 154 128 1.6653564632446178 2 27 4 22 11 28 5 46
3706 -6.0012937317908452 -2.4452911202845957 9.3811368323962068 31 41 7 1.3383612026067329 3 90 6 77 7 105 2 167 4 289
3708 -1.9842839248984681 0.74248532542870183 11.67039752087018 40 42 40 1.4805212593826063 3 207 1 130 6 192
4590 -2.5936327623704991 2.1256688582345298 11.818109010244983 158 158 150 0.3996728332813867 6 372 7 339 4 239 11 254 5 328
3711 -4.1093691420936169 -1.6847602283385328 6.9368490340231013 0 0 0 0.45328370345722391 3 249 8 1558
4880 -3.2999959552486517 -0.72464979870317636 9.1003711841713137 73 69 53 0.97823019353367024 7 3529 2 3162 3 3922 4 2369 11 3323 5 5283
3715 -4.5029559176153366 -2.5172565387453369 9.982780315244435 182 186 188 1.3418316736118232 1 156 6 244
3717 -3.5682738824305549 3.6565848821543097 9.3098032065984864 181 170 167 0.45606307244434796 3 364 1 177 6 348
3726 -4.203368637028488 -0.6350904433930229 8.6820138110173115 0 0 0 0.14544179388817424 3 247 8 155
3731 -2.8877739341198931 -2.2882590331376509 10.052909465359566 204 197 194 1.8929170778104458 3 173 1 251 6 726
4890 -1.6777419895693324 0.55965066231432137 11.26091466351264 180 179 175 0.43122104010391027 6 3723 7 3714 2 2757
3733 -6.7453844115505364 -1.9210064312811124 10.134657588824235 117 112 92 1.0570330239496797 3 175 1 255 6 165 7 121
4912 -4.5902254002325398 2.7420130860662333 10.840653387385244 162 161 156 0.44802455627972548 6 6225 7 3968 4 5113 11 4595 5 5550
3747 -3.6744915896722321 3.7370383836588621 9.295676903873586 157 150 142 0.51068443628162874 3 649 1 371 7 962 6 638
3763 -4.5381441604960937 -0.38769511858814859 8.9737183410086665 15 21 10 2.063613185236103 3 487 1 453 6 687 4 1010 2 1558 11 880 5 1267
4922 -2.634928840812377 2.3100010312810464 11.482289058560802 170 169 164 0.64642033315525149 6 4797 7 4030 11 4756
3765 -2.0564038741927528 -1.2876251809853758 10.576317763788218 168 168 158 2.0199017473816978 3 282 1 464 6 289 7 214
3774 -2.3337440524048554 0.52761425015986119 12.505190521236525 36 39 30 0.70324715322063158 3 932 1 542 6 1304
4944 -1.4841325631875877 3.2829209746264976 10.059987467716907 113 86 95 1.384170923004967 6 5225 7 4310 4 4320
3779 -0.95295467609045825 1.8882034670535137 11.247955703493867 33 34 53 0.66978098178774381 3 614 1 584 6 600
4129 -6.7678787584034641 -2.5278119381182647 9.4197188405090717 138 124 89 1.3961601795940934 3 525 6 260 4 288 11 224
3781 -1.9427524201430035 2.1683738400614687 11.792801055237778 99 95 94 1.4232079601454177 8 1294 1 588 6 391
5164 -2.1883528001049628 3.8159922952617009 9.9010676220978269 180 168 172 1.7828837263627311 7 290 2 534 4 374 11 488 5 662
4447 -3.334365266577624 3.7140982474683248 9.2070232334136772 136 116 120 0.74533497768388413 3 2539 6 4262 7 4269
3795 -2.6427210362057294 -1.0555576776662396 9.361197994469352 216 206 205 0.28405544934697274 3 497 1 742 6 471
5163 -3.3354372580766021 4.5289996063404905 9.2580457219049279 30 30 6 0.92297376381181695 6 332 2 524 11 483 5 517
4954 -2.1178082176228648 3.4724466519215449 7.137836507621321 38 47 28 0.027513365519408889 3 4267 7 4441
3797 -6.7153921133170282 -0.015064668496841748 10.549912605956777 111 104 75 1.7559303552838716 3 650 9 1333 10 1360 1 754 6 456 2 780
3806 -2.1605756672710483 -1.2901035267233318 10.128332026056704 43 49 33 0.38274062658290486 3 498 1 819
4976 -2.7095262064831278 2.062593306798211 11.943503502652142 143 142 134 0.28690712943579982 6 4705 7 4781 2 2846
3811 -1.2390304410403401 -0.17155319716361472 13.523985834411613 72 73 68 1.1380422512590551 3 913 8 1412 1 867 6 915 7 592 2 1043 11 894
3813 -4.2170672190851217 0.47997048050908375 10.197949744253178 183 184 176 0.24050233876469351 3 914 1 882 6 439
3814 -0.26654517357240437 0.32740861907534369 12.23506497841894 167 173 166 1.8443261099803128 3 305 1 889 6 304
4479 -3.4871510004564383 2.7300180475228979 10.873352199570625 181 181 181 0.53811859037266652 3 2942 6 4870 7 4961
3822 -2.6028971567204544 4.9648909156677083 9.0773365120959131 124 99 95 0.82783859029128681 3 976 1 941 6 947 7 1162 4 2324 2 2213
3824 -2.7593279095479084 4.6971935951721644 9.1992271010583497 70 56 52 1.1595736461985235 3 984 1 953 6 962 2 1197 4 1130 11 2366 5 3299
3827 -2.3190285611892865 4.5526118679435079 9.3625687975761167 123 116 109 1.6188556808912871 9 835 10 837 1 960
3840 -1.0935847364659712 1.4731001569900655 11.177998039942652 6 9 18 0.6264010603320862 8 2805 6 1064
3850 -5.4202608985260472 -2.2182671973121351 10.070669317498439 64 48 20 0.84302468113600071 3 1276 1 1179
3855 -1.697739656765733 3.7733077295099737 10.078034420778675 96 105 70 1.3564446545269566 3 1403 1 1260 6 1584 2 997 4 1106 11 1201 5 1360
4739 -2.2048608889026964 -1.5682324989749701 10.169416210309706 118 138 89 0.52708420722867033 6 2015 7 1889 2 900 11 1905 5 1242
3856 -2.0215049891678074 3.6472604644382889 9.9417796650302321 173 155 161 0.4708767694754421 3 1413 1 1266 6 1000 7 988 4 1639 11 1216 5 1384
4757 -1.8601905713431337 0.63578866632310638 11.472309371504897 131 129 114 1.9594936587795047 6 2157 7 2075 4 2540 2 1438 11 3128 5 5434
3866 -5.4969917859468476 2.1221571022631132 11.818819190641337 110 107 97 0.15698730690894458 10 1870 1 1391 9 1839
4238 -3.0231965813193198 -0.54727367591800091 9.2306324385095717 153 128 131 1.711640577179218 3 884 6 1099 7 1367 11 1939
3871 -8.7843752440972374 1.8207701590730334 12.963786907084092 67 69 58 0.31656819328956587 8 1941 1 1436
3872 -1.3740013893315766 1.0991871604670282 10.955947937048279 11 9 21 1.1212669438429825 3 1128 1 1437 6 1083
3887 -2.6625164980571459 -0.5693863079382312 9.4708721993530833 52 60 46 1.3985652139290066 10 3079 1 1552 9 4060
5586 -4.179585689238265 -2.3943491271175925 9.813288841895929 125 129 106 1.8208834155799181 2 1649 4 1264 11 1709 5 1779
4771 -3.6770892129969766 2.7842823332814612 10.778890379577408 116 112 108 0.48299638668562045 6 1361 7 2205 2 2040 4 1497 11 2143 5 2131
3888 -3.2266695753772301 -3.1008051596667703 9.950841729506136 74 84 52 2.0598838878627808 9 973 10 1000 1 1563
4789 -5.4564521350659509 2.0923133585305096 11.91463214632256 55 53 38 1.4585678335524095 6 2800 7 2451 2 2764 4 2541
3898 -4.9141857933669382 -1.1740854920363295 8.5971797595059858 24 32 4 1.5841797521078902 3 3324 1 1653 6 1986 7 1845
5593 -4.6897188315454033 -1.2993773995943543 8.9944200641708711 48 46 17 0.72317089310570981 2 1613 4 1298 11 1856 5 4024
4270 -1.2191214840427418 2.5348528106738808 12.755198720693755 48 52 51 1.2868326443045284 3 2111 6 1471 7 1554
3903 -3.8684829817971473 -2.8004765535362384 10.538244593524468 71 78 47 1.2513910779023947 3 1299 1 1699 6 1656 7 1223 2 839 4 1063
3904 -2.9798971101322071 -2.541090184816388 10.391467711146349 117 86 68 0.61570118750543157 3 821 1 1718 6 832 7 883
3914 -7.8529756897948442 -0.041903246612329748 10.192534600983063 108 97 67 0.49405891706192429 10 4771 1 1825
3919 -1.5708189419290193 0.29874015323723957 11.297445010597414 58 62 49 1.4937437590103115 9 4166 10 3064 1 1886 7 3668 6 5222
3936 -2.0153660785315655 2.3431017939199803 11.53015977758249 130 129 129 1.7032350283893871 3 1519 8 2702 1 2061 6 2335
3946 -3.0398596433037981 -2.2210678578349778 10.124599370566322 157 141 127 1.2393317386124483 3 833 1 2151 6 727 7 766
3951 -1.5816009543259932 5.0292697398274058 9.4091366184409004 157 135 114 1.3842619130197862 3 2674 10 3969 1 2212
4835 -1.426098398754317 4.6844960239594435 9.491848060961285 129 40 88 1.4275191589048521 6 3227 7 2953 4 3060 11 2674 5 931
3952 -2.602479645030785 4.7642049717827577 9.1914289927630435 152 134 136 0.54948857266831497 3 1714 1 2219 6 1838 7 1155 2 2147 4 2309 11 2380
3962 -3.0521116935367432 3.4129047719395302 9.7802167852865267 114 115 79 0.61212572188678849 3 2999 1 2285 6 4964 7 4230
4334 -4.2240227964692858 -0.50863480787320048 8.8889912813956329 193 182 180 0.46635863360785396 3 1917 6 2047 7 1926
3967 -4.1926066600368834 2.5248575218965397 11.230568426164865 119 116 109 0.51146150232563392 3 2644 1 2338 6 4000 7 3934
4624 -2.9978058584017551 0.1916754165372464 11.471425065564723 62 55 37 1.7961857996168864 6 1669 7 582
3971 -5.6066317902575635 1.6854980801400623 11.947833099534577 55 53 38 0.9297265984379508 8 2790 9 3113 1 2412
3973 -0.2390361528461214 1.2160721473628884 11.157975663013868 47 56 53 1.0931187837614975 3 2714 10 5112 1 2432 2 2031 5 1500
3982 -1.7111843728574874 0.16255183723151409 11.298462304217328 66 66 61 1.5564970029975564 8 3710 9 7177 1 2531 10 4828
4127 -4.3178033235875599 -1.1578791944502635 8.7724570689747665 70 69 41 1.8080888948120775 3 180 6 251 1 216 2 256 4 307 11 321
3987 -3.3794421384487596 -0.66849708861092072 9.0402972087422704 117 71 81 0.86668989558389653 3 2243 1 2616 6 2572 7 3199 4 3907 11 3095 5 2677
4634 -3.0708370581242255 -0.1174650359558564 11.190911729009342 193 195 192 0.84425743136838294 6 902 7 682 2 800 4 626 11 767
3989 -4.6420688367484342 -0.64262513255930154 8.4430518144034163 141 136 107 0.458577135865187 3 2224 1 2633 6 2536 4 3297
3998 -1.5863012428844985 1.3382283195698363 10.964307766360832 182 178 149 1.100341613434118 9 4580 1 2776 6 3872
4019 -3.4987913400533142 1.5936300240680918 11.766774440582644 170 172 167 1.7538847789183005 9 4640 10 3397 1 2988 10 5770
4666 -3.0284187842517745 -0.73328009852195419 9.1277574994999622 143 95 97 1.6395768693529793 3 873 6 1216 7 1077 2 1550 4 1378 11 1584 5 2690
4021 -0.22474915038634236 1.1759088278689755 11.162188873799899 85 95 95 0.17010568157254938 9 5868 1 2992 10 6267
4030 -1.7550914888830649 -0.2168306327763444 12.874811030792104 62 58 72 2.4865045169578579 8 4592 1 3129 7 3279
4688 -6.1323356630723973 -0.42565570816078446 9.9534978774971705 91 90 70 0.54507575290583488 6 2043 2 2572
4385 -3.2541804809623462 2.7695327757012547 10.87657977634597 127 124 119 1.1880293644735751 3 2947 6 2952 7 4995 2 2901 11 5823
4035 -5.8215154920561707 -1.3757674491427287 9.5056116656608562 108 92 72 2.287110544237978 9 5615 10 4557 1 3201
4037 -0.45776525265479501 2.7525551842075267 12.988373298702747 82 86 85 0.89162061681223304 9 3238 1 3215 10 2576
5420 -5.1562567284927017 2.6230679847441416 11.088914011475554 145 145 140 0.87299898064144399 2 206 4 219 11 213
4046 -3.4071858300593902 -0.36779995101316376 8.8485970857192839 41 44 22 1.7240630020971637 3 3938 1 3350 6 3539
4191 -4.2194831115356513 -1.214655429695227 8.7671161641753041 165 155 138 0.89774082795359511 3 748 6 741 7 911 2 870 4 1034 5 1180
5424 0.14687669736217751 0.78447937653367883 12.171116550161917 198 202 195 1.2745105493343054 2 378 4 238 11 258 5 323
4050 -1.6636753784114027 0.35368324046814908 11.292871245169959 88 79 80 0.37532760315557817 9 5173 1 3424 10 3183
4051 -0.55180290035776236 0.25809558238627234 12.218050081087092 36 37 39 0.72326715350602422 10 4856 1 3429 9 7226 7 3729
5419 -2.3527876901897833 3.963108447940265 9.9197187575904699 1 1 0 1.4929753622629107 7 185 4 218 11 204 5 301
4053 -2.9864282563503459 -2.502410233212466 10.402589956908447 171 148 130 0.31769643624535288 3 4005 1 3469 6 5610
5439 -7.8694636713395036 2.1361785509963123 10.739218519020806 31 32 24 0.1800467210433403 2 2490 4 331
4057 -2.5746702680596498 -1.2992726216319508 9.362986977070566 214 197 192 0.43658844144076392 9 6066 10 6498 1 3619
4062 -2.9735920423822182 2.3211573128654583 11.534858891716047 169 164 160 0.53882173563289171 3 2895 1 3741 6 4033 7 3993 4 2736 11 2941 5 3038
4720 -1.7341878727685471 4.061896065600318 10.332990111754963 68 70 54 0.95980598057398991 6 1787 7 1659 2 2134 4 2286 11 3813 5 4610
4067 -1.8340136773231561 3.4780485399315126 9.9408547115950565 49 39 28 0.70760955221237676 8 4238 10 2300 1 3787
4069 -1.5271928035486722 0.48065725422870753 11.379572800595987 24 24 24 1.62508594441209 10 4926 3 3464 1 1902 3 1149 8 3763 7 2066 6 2724
4078 -5.0366330480946724 0.54085442561080288 10.526787297365642 93 92 74 0.7438248384578714 8 1381 1 1488
4223 -2.5547128246968862 4.0400816956417138 9.7112436263660076 48 8 22 0.57025415011259672 3 1010 6 991 7 713
4083 -2.5028527287038682 4.0607281478694066 9.4756256780069883 29 19 17 1.0876873819195894 1 8 6 5 7 7
4730 -1.478399722518916 4.3038629496987824 9.3862407137582569 189 181 177 0.26931088252510343 6 3188 7 1780 2 2215
4085 -3.8014317914720221 2.964418227657136 7.7498440056331601 87 85 72 0.48150232862602371 1 10 6 16
4094 -3.1273829434778899 -0.88235172360331604 9.123613002513137 133 91 97 1.497877671039072 3 45 6 51 7 32 2 39 4 37 11 30 5 28
4095 -1.3910468381857393 0.95083754242049456 11.239834861468713 6 6 14 2.1100823230147379 3 54 6 59 7 51 11 72 5 52
5040 -0.80184617164054062 3.7076362799580536 13.611207540266584 108 104 76 1.5005381474255006 3 2992 7 5686 4 2968
4097 -3.4107823348429176 4.4734083786407703 9.6724614481344364 10 13 2 0.55512671814795389 3 70 7 60 2 92
4098 -3.0320783538045215 4.7485918301381087 9.382516974158202 0 1 0 2.1305162959888979 3 71 6 71 7 62
6066 -1.9847618125890387 0.72592756558720162 11.560214368824795 41 42 37 1.0216848510334933 4 337 11 576 5 392
4099 -5.7272197931469799 -2.5635684399314873 9.6012752430753352 152 149 137 0.887733986062193 3 89 6 76 11 38
5559 -1.4285910086119251 4.7991846638699096 9.6453079651051894 203 140 183 1.0263599642017878 2 1534 4 1084 11 909 5 928
4100 -3.1687781451055219 -1.3338099301334529 9.1938031133182925 214 206 204 1.5428106055602409 3 95 6 79 7 69 2 56 4 95 11 64 5 80
5044 -2.5671772526871433 0.56350734058912411 11.41582954753069 122 118 132 0.39884073426745792 6 5812 7 5827 4 5769 5 5366 2 3755
4101 -1.9461154768413074 -1.121369212821844 10.521029646537166 158 158 148 1.2454888627810405 3 97 6 84 7 78
5553 -2.9805521926318219 -2.3685789853149668 10.025456959212482 151 129 106 0.29715042874667513 2 732 4 1052 5 1803
4102 -3.1223972009218488 -0.24185083965457796 9.2594782573084906 177 154 160 0.17361753021228082 3 123 6 86
4103 -1.651575196075882 2.6306744974592386 12.581962638213595 23 21 9 0.96507778785635878 1 89 7 54
4104 -2.2442591512830923 2.364181917079752 11.690261346381153 108 104 97 1.4378357655540008 3 112 6 108
5048 -3.3432340680075985 2.6617115353855771 10.978986552403912 179 180 175 0.19991657811713337 3 4191 7 5982 11 5755
4105 -3.5118070652665585 -0.51576887313589648 8.9221796185573883 44 48 23 1.0173717179032882 3 98 6 116 1 72 7 108 2 183
4106 -1.8708840480672866 3.9527051778809854 9.6860203749648708 166 151 158 1.5989312554537409 3 148 6 119 7 91
6074 -0.022379277511727746 1.4471032572062141 11.475477870368033 217 217 205 0.50083566673735502 4 699 11 638 5 624
4107 -7.6623820320020979 6.7860152144953743 12.178749596551247 152 144 121 0.26304888263720161 3 147 4 171
5567 -2.5591064901132992 5.0077220285999333 8.9946154883821663 105 88 86 0.77604700461997744 2 1186 4 1149
4108 -1.654548134934642 -0.11892015392827578 13.949275669736771 107 106 101 0.67585262722390027 3 166 2 1476
5052 -2.1521795231937637 3.6242576459348275 9.9483766506053879 151 136 133 0.33748416189908648 3 4224 7 6234 11 7127
4109 -4.9429583929581593 0.62216659497417759 10.29467510815423 57 55 34 2.2714870653446333 3 102 7 348
4111 -7.476451245910158 10.009316673538486 19.15644874957508 35 26 10 0.17794891755867445 3 35 6 147
4992 -2.4579813334888807 2.3558827270424447 11.513795266256746 174 174 164 0.38980947980653619 6 4079 7 4945 2 2890 11 5816 5 4774
4113 -5.7541347342578124 -1.9477524960179062 9.9913786057572658 8 11 3 1.8810566310412216 10 123 6 162 9 115 3 133
4114 -5.7557063153294381 -2.4068242451273432 10.016834592505925 34 37 20 0.64097126782823977 3 251 6 166 7 123
4115 -3.3277584601470793 -0.29017179369691865 9.121674511266205 209 211 210 1.7678267276831492 6 180 7 130 2 148 11 113 5 140
5511 -2.5896412732402871 -0.76868987599234873 9.8122360134128961 39 42 31 1.0275037005968588 2 434 4 762 11 690 5 686
4116 -1.1624259055804123 0.25065468501246085 12.106691003325093 24 28 29 1.3982295945274934 3 343 6 189 7 223
4996 -3.4581303609864342 2.6890167464100925 10.924159439186406 118 113 110 0.64963600094689766 6 4859 7 4954 11 5742
4117 -3.1780193913467154 1.5661842170297975 12.116203769430209 127 125 110 1.0291089127833444 3 208 6 198 7 155 2 134 4 149 11 153 5 131
5505 -2.0909895817013293 4.2036179609879358 9.6057046408602833 1 0 1 0.3792790132045506 4 746 11 933
4118 -0.7622685091176844 1.2621766313310241 11.523809896647396 4 4 14 1.1430447107585493 3 316 7 276 2 372 4 905
4119 -7.8301853293851211 3.4313994266500929 11.81306013818652 26 23 8 1.224955227182388 3 215 6 203 7 168 2 350
4120 -0.84423496972302992 1.9667157331418734 12.051784106656473 44 46 65 2.3633538686844542 3 421 6 207
5000 -0.35705328643835971 1.5927752860079387 11.362556834772528 30 32 44 0.40306824978862554 1 3569 6 4052 7 4968
4121 -1.8826253676063149 3.24297455605875 12.746222942416175 219 212 223 1.1448315184258702 8 319 6 213
6026 -2.5108125183772323 -1.1210864300366223 11.072360240819195 58 69 38 2.4413429505497306 6 148 11 337 5 258
4123 -3.026434245612502 3.9829539177044357 9.7675031825968421 4 0 0 2.6583823329334804 3 248 6 225 7 139 4 93 2 93
5004 -1.966771825461556 2.3267085773612948 11.55415066085062 212 212 212 0.51927800308766825 6 4110 7 4990 4 4818 11 4868
4125 -5.2839665641402007 -2.4706582599289244 9.8143215076780557 82 75 49 0.79845396001806002 8 111 10 140 9 121 7 239
5513 0.73234508142170096 4.92801150393867 11.009672038136312 127 115 91 2.7154887926910818 2 2197 4 781 5 3713
4126 -2.9752060390078987 -2.5024652105677379 10.031961399902848 125 97 76 2.3070778238053431 3 172 4 187
4128 -2.7429530293994753 -0.85600195025981451 10.954870471822591 131 131 119 0.13712225026288533 3 288 2 79
4130 -4.4725570567234936 -2.1268145044112399 8.8785456201353092 39 50 18 0.550892964653244 3 246 6 264 1 208
6861 -1.8605413206929482 3.9231355655276707 9.9948694225303036 110 89 80 0.94282785727235685 4 4359 11 5279 5 4589
5970 -2.8724039694495431 3.2650292488803898 10.003060408569537 210 207 199 2.4613925650343202 6 1903 4 707 5 1021
4131 -6.7574476771505028 -1.8660368037272075 9.5427200538846897 120 107 75 1.4855271908352001 1 718 6 268 2 241
6854 -3.3950488312120428 -1.4010642365655703 9.2176157304376254 153 142 124 1.3263576930963978 4 1319 5 3975
5463 -2.7858315461492267 -0.61525805555573576 12.488693947860263 104 102 89 1.9566446130925637 6 453 4 474 11 368 5 413
4132 -6.1073167267579871 -2.0340913332426349 9.8580623100778961 21 26 5 0.29526206321817422 1 160 3 259 6 269
5831 -4.8269927459790019 2.7887887092551118 10.822715872471091 147 146 141 0.32675752115439988 2 2832 4 3530 11 4578 5 3544
4948 -1.8324619931135568 3.7301654478924506 10.088325498249171 86 79 67 0.79265155843413082 6 5024 7 4346 11 3771
4133 -3.3340271978383798 -2.5992774209512435 10.436381189584225 183 175 173 1.6056532128926619 3 515 6 270 7 246 2 479
5824 -2.9048793363334595 2.3655245577279249 11.387753718430764 114 113 105 0.36565180162669275 7 4887 4 3408 5 3052
5457 -0.29055505076485844 1.2371651589377954 11.480646003000386 64 68 67 2.0092622063579024 2 343 4 417 11 625 5 608
4134 -3.3462115296496133 -1.3901737320551353 8.7035926604015152 112 141 87 1.7268327857839096 3 271 6 280 7 420
6849 -4.4044371782619898 2.623606867880262 10.963257177211631 124 122 107 1.1306482951624364 4 2682 11 7757 5 3534
4135 -4.1854379999485172 -1.2522400884157505 8.7807586784968361 160 149 131 0.64734595127144468 3 273 6 281 7 256 2 464 4 509 11 412 5 460
6858 -2.2872900082889616 3.7046952709972865 9.9307994484414657 81 63 55 0.50152340228639802 4 3309 11 3727 5 4552
4136 -2.8500240719958887 -0.70970563517130802 9.1178666458388609 134 84 87 1.6212359052685572 3 285 6 290 7 368 2 439 4 613 11 887
4952 -1.3646745134411122 3.9412697055876662 10.437601218745614 211 138 185 0.4422694099966154 6 5054 7 4402 4 3009 11 2598
4137 -2.8522223780716289 -0.5403235546455768 9.5783860728972918 73 79 79 1.8415199185191355 2 787 4 617 11 1114 5 1564
5839 -5.5143328772916824 2.4248497972112011 11.376119392156598 98 96 87 0.72678887905733081 7 3816 4 3656 11 3115 5 2864
4956 -2.6962172270414473 4.7948737407371453 9.1474668443163303 187 179 170 0.49021963597799861 3 3499 6 5134 7 4496
5832 -0.80973438044199963 0.85385909375260305 11.532260463253239 0 5 1 2.0038511021872054 7 2491 11 4604 5 3494
5465 -3.0933216378032391 -0.60256113205607742 9.1172006054796793 147 100 106 1.6371991695058092 2 267 4 487 11 382
4142 -2.9462793154996354 6.0342501436996381 10.21001475893202 121 120 97 1.1698005764700465 3 141 6 317
4143 -2.2957213479043475 4.8850280488494207 9.1095293355459948 202 202 202 0.99116863074012618 3 336 6 321 7 558 2 505 4 549 11 460 5 678
5024 -2.579831785402912 -0.97250019496182172 9.4564879455925244 179 152 147 0.98583641679460177 6 5663 7 5470 4 3905
4145 -3.0794140999513675 3.8007013465477431 9.4647319862921808 193 181 195 0.23155454195453609 3 392 6 343 7 195
4146 -1.7290786382655736 3.3518154000127161 10.02661796219382 172 161 150 0.425832544171731 3 229 6 345 7 278
6877 -1.1075129686358975 0.7148026043905662 11.126025538473625 29 29 39 1.6163240591073069 6 5977 7 4595 5 6176
6050 -1.4444664372021447 3.2055224589360902 10.321664775018188 216 211 217 0.62180023561908737 4 730 11 495 5 523
4147 -3.1298141175046799 4.0292203512987923 9.4315071618977715 208 198 207 1.4750797475502713 3 356 6 352 7 286 2 221 4 260 11 276 5 528
6870 -1.0887574786882959 1.0697484950701588 11.285793181743497 81 79 104 0.1289478758386364 4 3534 11 5556 5 5605
5543 -5.6928542664601052 0.50135972353357516 10.906185230938354 24 29 7 0.56800158189750849 2 928 4 980 11 1108
4148 -2.9703440816035096 3.6704455200430299 11.216173160335183 104 104 94 2.3694360535222114 3 642 6 354 7 513
5847 -1.7317238027823112 0.49759287680689646 11.262920149993404 177 170 169 0.19745642170997443 2 2750 4 3739 11 4380 5 3701
5028 -1.6069860264682398 0.1122281683157282 11.361431675483063 178 183 164 0.1829907708137245 6 4743 7 5531 4 5324
4149 -1.2185174778073289 2.7608832366630374 13.075777488960632 139 145 145 0.87525641458124903 3 374 6 363 4 110
5840 -5.2495620543065247 2.2855129025830379 11.643046239576494 76 75 63 0.23593688443039315 7 2472 4 3663 5 3657
5537 -0.18399856236346843 0.80766039405744527 11.809946331852887 151 156 136 0.68383541268793602 2 970 4 912 11 1027
4150 -3.5466111844431647 2.864816159885772 9.5649981847675889 23 36 16 1.5043305005429051 3 385 6 365 7 191
6865 -2.0536368763085635 2.2642612098672652 11.674859668740877 100 95 91 0.30067138460975784 11 4840 5 4803
4151 -2.2374246323831444 2.7216797171516416 11.281901144890316 203 204 207 1.4392179219228864 1 319 4 84 11 94 5 89
4152 -4.5629897699281061 2.5751562193374755 11.122917454786982 101 96 89 1.0410215632775059 3 379 6 373 7 309 2 251 4 343
5032 -1.6205755181502386 0.37087051397009335 11.285430012500131 96 87 90 0.18534690137715931 6 5822 7 5560 4 5353 11 6361 5 5389
4153 -3.0100894833654888 -2.0601174101237221 9.7739317950730786 97 78 61 1.6377292414110418 1 1169 6 398 7 412
4154 -4.6440934315367475 2.342242493916201 11.517092162010213 52 49 44 0.71322082008881016 3 424 6 412 7 748 2 386
6058 -0.67517569019484092 1.442288154461401 11.259948590437215 10 13 17 0.42474021761832792 4 413 11 537 5 358
4155 -5.1449521823158095 2.3542056831973786 11.670857816620211 135 138 125 1.5894963580524579 3 212 7 329 2 293 4 339
5551 -4.0442936171985098 -1.4788004383229507 9.0144419713856561 110 78 57 0.9932968276279146 2 749 4 1041 11 836 5 813
4156 -3.3229195523752155 1.5308444927979801 11.992301047413946 180 182 176 0.96726241051447848 3 434 6 417 7 473 2 397 4 437 11 568 5 387
5855 -7.7925673559100233 0.53590002429532269 10.190367479159878 69 63 38 0.87376955993746863 7 3239 4 3890
5036 -1.0035049116856145 0.73403646059485084 11.190842244825303 114 117 124 0.72952811217309332 6 5394 7 5657 11 3039 4 2628 5 3556 2 2784
4157 -0.4187136470397369 -0.35146733146212289 13.232505466835825 28 23 28 0.84513874373498221 1 77 6 433
5545 -2.7147420533460469 -0.63174303488475292 9.7436304069936526 183 184 175 2.2612680347331549 2 788 7 1087 4 990 11 379 11 1115 5 863
4158 -3.5033220980669246 -0.14746937340972271 9.1161134389349403 158 128 128 1.8822040026885836 3 293 6 454 2 431
4160 -5.7714687170761962 -0.83663906080564965 9.4083101090341898 47 45 24 0.27868625267744906 3 499 2 883
4161 -4.1345047902918752 -2.263632079159442 9.4937154575141527 32 37 14 1.8348843182640271 3 257 6 497 7 245 2 242 4 295 11 307 5 232
4162 -5.6606781543208839 -2.323386123760133 10.134456419297734 141 130 108 0.025142057959006696 6 499 7 401
6130 -3.0537390188600182 3.5716242886924512 9.5077815164989428 172 162 163 0.77309020503990789 4 1592 11 976 5 2281
4163 -3.1864488116860366 -3.0274434797347558 11.184402167724048 76 91 48 1.6391060893170326 6 500 7 244 2 172 4 180 11 130
5108 -2.0818674240933408 2.6742626992894643 12.524367002527653 194 198 201 0.93065807703168535 7 48 2 24
4165 -3.3126636107637295 -2.9675338695736753 9.8271637991988978 46 63 20 1.9179767660896743 3 526 6 506 7 393 2 832 4 1243
5617 -0.36735365481009724 0.35380343614881399 12.260589996362633 20 22 17 1.6622587307557559 2 1413 4 1500 11 1049
4166 -2.9507527219729313 5.3113173363243895 8.9241185559753546 90 111 78 1.9976009786469646 3 965 6 508 7 735 2 503 4 551
4167 -3.1785558784644365 5.1313780194290191 9.0650858162193746 152 161 96 0.3131005786700512 3 539 6 513 7 556 2 511 4 500 11 469
4168 -1.5155838453002801 4.4104497768394273 9.3320533258009295 23 25 12 1.9154079494153597 3 718 6 517 7 310 2 303 4 269 11 291
5112 -2.5285960455005561 -2.4488541101127823 10.128929101553615 192 184 171 0.45768197757593099 7 67 2 52
4169 -3.1531784274630414 4.883791790984918 9.1471324430941685 82 96 75 0.90846660322105832 3 685 6 521 7 550 2 684 4 749 11 673
6138 -1.381125625586618 0.54592236765092172 11.797560073193731 87 98 75 0.94292074270455517 4 2565 7 2084 11 1060
4171 -6.2498180888374302 5.6672159174561543 12.820258136107276 84 84 71 1.3384000064359765 3 358 6 539 7 516
5631 -2.6154120014040183 3.494951305534582 10.010092624857746 59 72 29 0.67747531071214995 2 1261 4 1602 11 971
4172 -3.3308376194135323 3.4622830712812145 9.7687363010066441 34 41 24 0.1376534076713711 3 643 6 548
5625 -3.0140452075677056 2.0723299515130398 11.954502619410883 174 175 170 0.52363166664274807 2 1102 4 1536 5 1156
4174 -0.96114042294043345 1.2103997707104868 11.528572887975541 17 20 27 2.0189507985909185 3 594 6 579 7 485 2 599
4175 -0.10327799424356691 1.3144212870780674 10.797490526648996 120 116 151 0.13152422557323099 3 1114 6 592 7 684
5414 -3.2149416708699707 0.00069881256966983262 9.1493712937015808 190 189 184 0.16065866142904095 2 187 4 195
5056 -0.74422259715924322 0.77064856770194756 11.34498699151219 72 78 57 0.58559789849235677 6 6002 7 6288 11 5497
4177 -2.7683647317690196 2.9529290545473308 10.694869349045319 71 70 65 2.3666195582396696 3 1073 6 617 7 502 11 523
5923 -1.6936847441047562 3.2187392223691162 10.171819499369317 154 139 142 1.043083564661186 7 6208 4 5299 11 2479 5 3384
4178 -3.1130245492484625 3.1625141573483795 9.6553143978006108 179 168 176 1.2692671300081402 3 1476 6 621 7 939 2 1288 4 1571 11 1314 5 1472
6082 -1.8850166229454348 4.1475979081927843 9.6879138225444947 42 17 13 0.36938906133811827 4 872 11 702 5 669
4179 -3.3004609831251575 3.3055292255626281 9.3195636876600929 117 135 78 0.44384836027405161 3 1460 6 624 7 510 2 559
5575 -0.71824562030877537 1.5844779817878174 11.178882239635332 52 56 58 0.21905184107354256 2 2047 4 1206 11 1351
4901 -4.7577216160083164 2.5323300116880798 11.199955601684026 165 166 160 0.29879468706538787 6 3955 7 3885 2 2379 4 3577 11 3053 5 2048
4180 -3.1998654428859257 3.7182948138569287 9.4420917403127369 92 49 58 1.1723014134059375 3 652 6 641 7 973 2 1022 4 1597 11 975 5 1422
5060 -3.0397732763452683 2.0153265156524487 12.041036406100122 114 114 104 0.97870741307218645 6 6126 7 6439 4 5560 11 7798
4181 -3.2933235101522 4.6190182934305328 9.2396974422991143 25 23 9 1.0918763140986312 3 993 6 661 2 991 4 863 11 940
5569 -0.14080867247908219 4.9864347526996484 11.151048505735757 80 73 45 2.4190931155558877 7 2969 4 1169 11 3926
4182 -1.6660080225507936 4.1318783313699452 9.5884840481569196 220 219 224 1.6993020660722953 3 1367 6 663 7 305
4183 -1.4877732320829333 4.6542913905093384 9.4538376479308823 185 113 159 0.82338787556412785 3 687 6 675 7 562 2 501 4 555 11 457 5 502
4905 -4.4564899235645283 2.6106144224653831 10.969452194238904 100 97 90 1.4935358167330413 3 2903 7 3937 4 4568 11 4579
4184 -1.8899236525990568 5.2114657791410872 9.3667168214452907 221 225 219 1.252217695684974 3 701 6 684 7 739 2 699 4 929 11 904
5422 -2.1242053640018526 5.1652999248565177 9.3519600556066056 54 24 24 1.4780129296149154 2 150 4 232 11 218
5064 -4.5762840361707946 2.650954458548866 10.967804032028969 156 157 149 0.56434871330843972 6 6189 7 6502 4 5571 11 7740
4185 -1.8056472532922678 5.1970543533149174 9.3854934091251216 45 56 39 1.3296616800384775 3 963 6 685 7 1060 2 969 4 760 11 687 5 926
6090 -2.4530299103416322 -1.3186520816896101 10.497186373850178 37 39 25 1.9443269083781589 4 494 11 755 5 438
4187 -2.4044340571588667 5.1662483902279108 9.2206772653226547 121 92 94 1.0669962648092495 3 695 6 705 7 1046
5583 -4.6107832683708443 -2.3804690155404886 8.9915925890892936 86 90 55 0.99875410043568758 2 1672 5 778 4 1244
4909 -2.4380968790272868 2.0012910636647172 12.118221970201997 85 81 70 0.37148997639602532 6 3964 7 3947 2 3464
4188 -3.076270004398681 -2.3760994486705043 10.073970657669367 144 125 101 0.72979977537417229 3 826 7 1251 11 3441
5068 -3.4812411863685249 2.4195998501601337 11.38775870200193 131 132 127 0.77285231821081868 6 4763 7 6568 4 5472 11 6588
4189 -6.75650907278325 -1.4587663029193287 9.7250369590501489 94 82 55 0.51326057962432614 8 789 6 729 2 471
5577 -1.994494456849234 2.2329893151728828 11.710280114333239 160 156 152 0.59379695915001229 2 1321 3 1524 4 1208 1 1364 5 2192
4190 -5.0751783665796024 -1.1283732249828302 8.6978708716280071 33 42 25 0.90058745903759063 3 745 6 738
4192 -3.2824160568587901 -1.3315239085561017 9.0865941692764913 198 193 187 0.93526013667373309 3 750 6 746 7 784 2 456 4 502 11 402 5 453
4194 -4.7061894883787101 -0.90514163780455792 8.7353339597220767 178 161 151 0.91760233334197949 3 955 6 749 7 426
6034 -2.5475351209933481 -1.0217903772091439 11.40882117922596 81 82 66 0.20851035657422101 2 1535 11 380
4195 -2.333894691762902 -1.3279257186108906 9.8327688458763483 202 179 173 1.8718283551840083 6 751 7 655 2 772 4 604 11 754 5 749
5527 -2.0520189821947432 4.3141738815482391 9.6218442905700119 35 37 16 1.6076539722322756 2 681 4 874 11 932 5 1345
4196 -4.342974434140169 -0.62727998936892959 8.6576559229344667 54 45 22 1.5161996964992543 3 328 6 756 7 1028 2 902 11 3352 5 2640
5012 -3.1453374075399516 3.7365759940686036 9.470370561668993 116 89 93 1.432129904307083 6 5236 7 5185 4 6007 11 7060
4197 -2.4779046566530551 -1.0132356661428106 9.6646392643657517 39 37 32 1.3036933132464739 6 761 7 436 2 441 4 489 11 387 5 436
5521 0.99096443361465147 2.5034543859641127 12.846240486613246 101 100 96 0.69205090189768859 2 1010 4 852 11 938 5 960
4198 -2.1165910931337932 -1.1562136482505869 10.546393654203042 75 95 67 0.80013303686206882 3 493 6 763 7 743
4199 -3.0013172856393018 -0.61364365794533116 9.2531221347378896 208 206 207 0.59917114241945568 3 881 6 768 7 671 2 783 4 616 11 966 5 1557
4200 -6.0070496950743566 0.26010278074382703 10.661354410150222 30 44 9 2.0685634578764902 3 786 6 777 7 1093
5016 -2.6021498963883052 4.3001354489039851 9.4198353072098762 102 83 79 0.37819940759260601 3 3907 6 6444 7 5281
4201 -3.2211794871054797 0.046690425260794796 9.1000080628017148 214 216 218 2.3150638365458001 3 1185 6 779 7 447 4 979
4202 -2.9562677199347793 -0.19055195978097103 12.595851520469804 105 103 90 1.0545978758215402 3 466 6 782 7 685
6042 -4.5659529907966565 -1.5457655150114451 9.1156711950480034 49 55 21 1.693199452446901 4 520 11 423 5 714
4203 -3.6134893857637733 0.24561319675744533 9.2887066441962922 183 186 175 0.67496336213519348 3 668 6 784 7 350
5535 -4.0455007894394814 2.6899588138358412 10.921784648635548 145 144 139 0.51427524110084655 2 1352 4 909 11 1035
4204 -1.3791035608576789 -0.17735895600232998 13.416254423781972 115 116 111 1.5796592527470523 3 911 6 788 7 589 2 282
5529 -2.3626032410784212 4.4400598944637695 9.1126480319426406 29 38 11 0.9097296631600329 4 878 11 1075
4206 -1.9085760882434417 0.90363891947509567 11.41813296991544 76 81 62 1.3359932963031054 3 577 6 802 7 621 2 400
4207 -6.6550959231698625 2.1382975541151881 11.77276214107175 132 125 95 1.8234027097225571 1 575 3 589 6 803 7 811 2 564 4 639 5 551
4209 -4.575416740486796 -1.0202801571473332 8.7485000967042623 96 63 48 0.71160874863568468 3 1132 6 855 7 1309 2 1598 4 2155 11 1877 5 2598
4210 -3.3182667041149925 -1.2463465839862047 9.0958935366714861 53 44 27 0.63493747945160939 3 1233 6 858 7 933 2 1590 4 1665 11 1680
6114 -1.9089260228064753 5.1043598731869473 9.3130666149133301 88 41 47 0.04178704781306565 4 1163 11 908
4211 -2.6840183672176074 -1.3605441274376948 9.3142859014000088 217 207 205 1.4247237669797794 1 808 6 863 7 974 2 889
5607 -2.8936671610408111 -0.34210555772709367 13.151068332827521 44 47 28 0.2958475948023534 2 1865 4 1419 11 1636 5 1595
4212 -3.3294529892667013 -0.85827986027102587 9.0094010998696064 45 28 17 1.0691027603800147 3 954 6 871 7 1340 2 1567
5092 -0.08823832429337615 1.4779231737794158 11.250177796495501 210 211 203 2.04657970098165 1 1399 7 497
4213 -2.4216273810721596 -0.93035746258991436 10.737184354516724 36 38 25 0.25728584219012524 3 488 7 673 2 1533
5601 -2.7512492498173495 -1.0994576635861828 9.2510370803299384 168 135 133 1.126698604619615 2 770 4 1355 11 875 5 1256
4214 -1.2406177057317416 -0.26850957916526008 13.576055358638072 111 110 105 0.73055033279950821 3 1028 6 912 7 590 2 956 4 635 11 1074 5 1620
4215 -2.2546976022194269 0.75992369250085923 11.820099279360576 48 47 53 0.59198408334557873 6 927 7 612
4216 -2.0529666206417239 5.2121404893969041 9.2860713060208031 60 15 32 0.95371431459543188 3 699 6 933 7 1056 4 3066 11 2679
5096 -6.3761046574772813 0.32216733178077267 10.276859758812183 100 95 64 1.2828027963647575 1 864 7 1962
4217 -3.1314670750164599 5.1346797056666844 9.1540179167635198 27 10 2 1.6919151526652756 3 1726 6 949 7 389 2 705 4 751 11 676
6122 1.1312610060640615 2.6345772486431014 13.082307675410723 56 54 54 0.43156789092198494 4 862 11 934 5 950
4219 -1.7028977796831628 4.2037903834251891 9.0451995518696453 170 159 153 0.26186449461481431 3 989 6 965 7 1029
5615 0.26115736654049931 0.95376338228352298 12.227463873771143 139 154 156 0.92558296971419707 2 1091 4 1478 11 1364 5 1498
4220 -2.1357560684864523 4.3924821210496576 9.7477266407975964 9 11 0 0.59235777308765192 3 1360 6 969 7 1018
5100 -3.0918931623800989 2.033185452385506 10.505050847733733 206 209 207 2.0094761707925746 6 6160 7 5697
4221 -1.8063627221174214 4.0623712176873399 9.9469103395120424 133 113 115 1.2978928609663636 3 1673 6 978 7 1007 2 1209
5609 -6.5958957105152294 2.0332463676130463 11.911543288097475 137 130 101 0.35591164116203666 6 2175 4 1446
4222 -2.6212811428090861 4.1613534083134684 9.5672264537599077 6 6 0 0.80075040158178878 3 1004 6 982 7 889 2 670 4 738 11 667 5 664
4881 -2.613721130803687 -0.63975759939392129 9.9187194524563651 77 86 69 0.81564783587543277 6 2607 7 3568 4 2405 11 4205 5 3852
4224 -0.79123087585843599 3.996128422343125 12.497520017700877 87 82 61 1.6224846596736631 6 996 7 1647 2 2237
5398 -4.1795858984619247 -0.55937919232274069 8.6659530367123931 196 187 182 0.77622079322509918 2 155 4 135 11 137 5 148
4225 -1.2432690269436675 3.4478588581521121 10.126708766167244 183 162 171 0.1181442564287838 3 1424 6 998 7 992
5907 -2.8636062255551629 3.0357676376484641 10.092939966860385 162 153 156 1.060722002976314 7 5085 4 4885 11 5005 5 4396
4226 -2.1943444050365288 3.702080736329997 9.9651245813893556 183 173 175 0.23401534909336141 3 1019 6 1001 7 986
4885 -7.494632883276088 1.2180122254759254 11.225004529760222 102 93 60 2.4103484822771182 3 2303 7 3609 11 6224
4229 -1.4343157417945385 3.272585964880423 10.128640597800542 220 214 224 0.37858493207109079 3 1446 6 1013 7 707
4230 -3.106668571329616 3.4722227590947541 9.8227155372687527 31 36 16 0.54641756842646771 3 1454 6 1021 7 953 2 1035 4 808 11 1287
5396 -4.2474580915476743 -2.5626469096582492 10.019705697794803 182 186 187 0.83401371782045863 2 171 4 126 11 129 5 150
4231 -2.9893254579832642 2.9898783900315209 9.831090932575222 156 135 134 1.3656996110371573 3 1066 6 1027 7 938 2 638 4 701 11 527 5 352
4232 -3.1631434599526189 2.9355150878012726 10.00375693806574 209 205 206 1.3638745777055106 3 2961 6 1032 7 931 2 629 4 405 11 536 5 356
5406 -0.00044710266309115279 0.62578848039793444 11.532773817378677 220 225 216 1.8197590961357524 4 156 11 156 5 195
4233 -3.7560297533027902 2.8841646405052037 9.1983184588554678 120 99 98 0.91597156435743321 3 1074 6 1038 7 924
5915 -3.3735747069442685 -0.70911778360572553 8.9821536948851737 124 68 77 0.41414826840917379 7 5759 4 5106 11 5195
4234 -2.5860125640578189 2.0244162377504411 12.067196740390537 101 97 93 0.50690466785622768 3 1111 6 1062 7 843
4235 -0.36083632261513499 0.99474532210641553 11.252972700296667 63 67 50 1.127949977161202 3 1127 6 1078 7 638
4893 -5.5043965708242109 2.0694339797025809 11.984007713190085 78 75 60 0.53890889594355884 6 3818 7 3766 2 3397 4 5398
4236 -0.93909468378093808 0.75675126092949008 11.413628315292391 3 4 9 1.0036571073708378 3 1595 6 1090 7 474
4237 -0.32601657323931615 0.40324886241597802 12.216626509277191 61 66 62 1.904137260396995 1 1908 6 1094 2 581 4 660
5404 -0.32574740030002175 0.69357440864182873 11.7769689574328 19 20 22 1.1822830768183632 2 131 4 153
4239 -3.9117423364997737 -1.6553455465709142 9.3532418000940254 91 81 64 1.055423987998352 3 1256 6 1148 7 897
4961 -2.4917937824229242 5.1181772924910502 9.1334637251224624 182 159 160 0.86169753590963538 6 4465 7 4553 2 3266
4240 -2.5750859969676547 -1.7037906956538971 9.4910609667292984 221 211 209 1.1383327613125345 3 1862 6 1160 7 912 2 874 4 1030 11 851 5 1203
5478 -2.7960007193186187 -2.4802726249422897 10.441344697432058 171 154 136 0.72823001473957871 2 734 4 573 11 623 5 803
4241 -2.1859433851734802 -1.6744949530037421 10.059314905363408 89 106 67 1.4694328225939211 3 1872 6 1176 2 2584 11 868
5987 -3.9267456730966361 0.71478021514180412 12.649990983717606 54 50 40 1.2544672716151724 4 60 11 48
4242 -4.0759807608177416 -1.0256168345251868 8.8001913196872188 49 30 16 1.7349649609328182 3 856 6 1180 7 1875 2 926 4 1326 11 856 5 823
4243 -4.2928268113957762 -0.88942220405122729 8.6834572638072505 155 139 123 1.3046648540609749 3 1756 6 1183 1 1114 7 1702 2 2588 4 3954 11 7257
4965 -0.71325748264353583 0.72417671525433824 11.273428625210901 93 96 78 0.65851994575268691 3 3590 6 5411 7 4619
4244 -4.7415887804737205 -0.81381988342337941 8.7617559680533841 153 133 122 1.0981865607457324 3 1223 6 1186 7 1322
4246 -2.6144577343160913 -1.0741287301400257 9.3893638064611196 224 214 215 0.48085606252408364 3 1222 6 1200 7 1342 4 1011
