# 3D point list with one line of data per point:
#   POINT3D_ID, X, Y, Z, R, G, B, ERROR, TRACK[] as (IMAGE_ID, POINT2D_IDX)
# Number of points: 305, mean track length: 9.869860627177701
2388 -10.794473173967665 6.1988463205118354 21.193520964638612 96 82 45 1.7199101909891672 23 1180 30 2357 21 1537 33 1962 27 1463 28 1646 25 1275 26 1488 19 1639 14 1245 34 1293 35 1168 31 1167 4 988 22 1349 8 878 20 826 16 859
2597 -6.4859053508635807 4.9288653787124748 3.5479898795459595 150 153 146 0.71476212752390722 30 866 32 1182 33 1151 27 1277
2389 2.7135791938958018 3.629339966410734 9.4500857260793225 59 50 35 1.2313627222506756 18 2849 32 2198 30 2362 33 2933 29 2568 24 2959 19 3622 14 2804 14 2807 10 2213 31 1447
2756 2.8244253655449696 4.1186785431854016 9.6946647982646361 109 103 89 0.3763940716609569 32 1729 21 1542 33 1092 27 1478 25 870 29 1372 26 1021 24 1088 19 1289 22 1363 14 1095 10 799
2390 -10.741064656465168 6.4572042080685828 21.608774463496829 151 129 89 0.9932294592191736 23 1680 30 2364 29 2575 21 2129 26 2678 24 3486 22 3692
3265 7.1154423407971885 -7.1262280833842837 17.32573812496371 182 171 149 1.2789114558698702 18 2687 26 3528 28 1674 33 2380 32 2304 24 3123 19 3039 22 3390 14 1408
2393 -10.03381507282722 5.4984740417369045 20.80862150187815 53 39 23 1.8069482261732825 23 2225 32 1902 30 2383 21 2100 33 2901 28 2492 25 2402 29 4491 24 1690 19 1232 19 2774 28 1062 22 2665 14 3225 10 750 34 670 34 2745 35 3130
2760 -5.0717530695134805 3.7744407403641862 5.5636371123205484 124 115 104 1.9422645016899875 32 2022 21 1579 26 1900 19 1472 24 1351 22 1391 14 1471
3118 4.0851103284169721 0.40603778485891745 21.0652187894602 31 25 32 1.302503993912093 18 2549 23 2498 33 1816 27 3213 32 3779 30 2658 28 2791 29 1189 26 1643 19 2144 22 1764 14 2099
2394 -5.2845108058975123 2.8817132059955948 5.6832747839341327 183 175 167 0.76522889329710486 18 1588 30 2404 21 2561 32 3438 33 3789 27 2776 28 2524 25 2432 29 3916 26 1816 24 3485 19 1250 22 3687 14 2811 10 636 34 1023 31 658
2396 2.328893935977753 4.1846455512295577 9.8635954098445087 57 39 30 1.303208537225895 18 2296 30 2458 33 3860 27 2799 28 2552 25 3699 27 2953 30 2457 26 3574 24 3519 22 2733 14 3628 10 2025 35 3720
2605 -6.4295184374603078 4.9942319159018904 3.575756207889293 25 22 13 0.3861478357932292 30 521 32 545 21 513 33 480
2398 5.1102721484841229 3.0123809568916817 4.6282134670631363 168 159 130 1.0199284730158624 23 2295 30 2471 27 2256 21 3111 28 3502 29 4492 19 2862
3273 -6.7205843170582398 2.0293294441706231 2.6303778317489805 125 113 97 1.3570970987177686 32 3776 33 3740 25 3609 30 3289 29 4487
5838 1.24658671335385 -3.015860527071375 22.839754405022113 167 160 150 1.4414843249326648 10 936 31 771 35 1042 7 793 24 1432 27 1754 28 2209 32 1502 33 997 19 2082 5 346 4 278
2399 -3.2978289874348254 10.185989190178983 12.772328001977614 131 100 53 1.11102034880316 18 2408 32 1380 30 2496 21 1746 33 1279
2400 -11.153953609019169 9.2201247664344876 23.48359580831054 81 63 25 1.7476723819500732 23 2713 28 2620 32 2017 30 1758 33 2033 25 1926 26 2762 19 3316 14 2192 19 3318 28 3562
2401 -1.4752655411804858 8.4280745334661216 20.608202801060507 136 126 101 1.1397511166436725 18 2454 32 2783 30 2518 21 2621 33 2967 27 2860 28 3901 25 1933 29 2692 26 2764 24 3574 19 1734 22 2000 14 2195 10 1517 34 2346 35 1904 22 3854 25 2532 31 1893 35 2762
2704 3.3815854229764279 1.8618741902397939 9.1697331703808604 184 178 151 0.46032679074715671 32 1073 21 1161 27 1158 28 1043
2403 -2.6235709693768201 9.0650070455050322 20.42089112777942 200 184 150 2.3939155909116758 28 3575 25 3818 30 3790 33 3965 29 4123 26 3681 24 3600 19 2206 19 3341 14 3147 31 1078 21 2645 10 1411 34 1708 35 1484
2404 -2.7585861698054113 8.8697049086716007 19.346787766339471 137 110 65 1.833128053359993 23 2333 30 2537 21 2193 33 3970 27 2321 25 3830 25 3827 24 2386 10 1484 18 2915 1 541
2405 -2.546748451048531 8.6253053711169869 18.188549237864422 130 115 84 0.88333594158898632 18 1069 30 2541 28 2381 29 1431 26 1049 24 2389 19 1488
2708 3.4575344714741858 1.9567927139714147 9.1355974113461755 168 159 142 1.0338451027778681 32 675 21 1179 33 1057 24 1041 25 1756 26 3390 19 3503 22 2217 14 1189 14 1581
2406 -0.40222066823327829 9.7056569693868973 20.474286816236006 79 54 25 2.0397658110467214 18 2360 32 3971 30 2548 33 4490 25 3847 29 2741 26 3707 28 3593 25 3475 29 2738 30 3446 28 2479 22 3922
3217 -5.7878143310667518 4.5686253685398661 5.3148459087460314 3 0 0 0.68986250807735505 18 887 33 3005 26 1955
2407 -0.29259319990180815 8.8380499756188051 17.899689549569722 161 149 121 0.49650764467672898 18 2361 30 2549 27 2889 25 3849 29 2743 14 3393
2411 4.2867010567124622 -2.6308671695769958 22.497596791128075 163 160 145 0.52904126814927677 23 2061 30 2606 25 1631
3738 5.1811348184995394 4.1458686881618458 4.868393081955233 117 110 84 1.5928094549640193 33 2987 28 2553 22 3924
2412 3.361090414695509 -0.0025399766194408027 22.522421221879785 147 148 140 1.3863081971206714 23 2486 32 3398 30 2643 18 2766 33 4350 30 3125 21 2397 25 2927 26 2432 24 2753 19 2590 22 2572 14 2581 10 1676
3231 -7.6159114038192 4.7561681009732864 3.9792163948964618 126 125 121 0.55101881104695105 32 1367 33 3078 27 2749
2413 5.7266496022881705 0.089518339866787852 21.426341338056531 35 31 55 1.2252999574361687 23 3024 30 2649 33 4358 28 2263 25 3373 21 2964 29 2287 26 3094 22 3165 14 3192
2716 -4.3905239367386013 7.0614320294889463 24.185936103067615 115 108 80 0.98963971006377582 18 1629 30 1351 21 1209 32 1709 33 1976 27 1177 27 3357 28 639 29 2068 26 1495 24 1314 19 1651 22 1357 14 2822
2414 -11.292512248108908 0.69437364586993067 21.774916238267043 40 39 34 1.2616331750256162 23 2115 30 2650 28 1968 21 1449 27 2611 32 2500 33 2706 30 2195 25 3381 29 2293 26 1640 24 2190 19 2142 22 2586 14 2100 34 1547 35 1535 31 1366 7 1410
2415 -11.38178433531175 0.72118991022771406 21.427380965129565 38 36 27 1.3641675399128796 23 2117 32 2591 30 2651 21 2010 23 1686 33 4360 24 3765 22 1766 35 1534 12 1287 11 2110 2 334
2416 4.3820084640560868 0.39690927712927065 21.780939864876377 125 122 112 1.6336983509735776 23 2501 32 3783 30 2656 21 2411 27 3207 28 3255 10 1668 7 1275
5347 2.2987715362835583 -2.6276724132863345 15.139626562740277 128 121 109 1.4963027779879112 23 2837 30 3726 10 1858
2417 9.879719692065887 0.33763925781068121 19.884470016919543 147 137 102 0.8584826071804843 18 2538 30 2660 28 2790 25 2945 24 3766
2784 10.809025189098676 -5.2284646988604191 19.104603200115537 95 87 60 1.0710285275159106 18 1445 23 1590 21 1703 27 1720 28 2692 25 2209 24 2097 19 2045 22 3615 28 3914 10 981 34 1456 35 1826 31 1255
2419 10.38883160044028 1.103207566284865 20.706313400655812 153 140 123 0.55510994986586926 18 2561 23 2114 30 2699 33 4434 27 3236 28 2831 25 3405 29 2341 24 2794 19 2636 22 2629 14 2629 10 1646 35 2985 31 1846
3810 0.78095950754176824 4.2856558595011558 22.444492522245881 22 15 8 1.2704292208928594 33 1905 27 3298 28 1430 23 2605 32 1454 28 3362 21 3072 25 1778 29 1325 26 1301 24 2293 19 2722 22 3533 14 1208 34 348 10 1606
3303 0.60381352321028658 -4.2900831799386134 20.111131794907163 20 19 14 0.49891378764223271 18 1826 33 4153 28 2171
2421 3.7960323386682462 1.9014913529137625 21.113869721821491 180 177 166 1.3964865155777679 18 1925 30 2722 21 2469 33 3430 27 3260 28 3311 25 3433 26 1686 29 1939 19 2656 14 2654 14 3547 26 3339
2788 6.3272963075338371 7.6755961765007683 7.6624505177266684 161 151 123 1.6541895736553531 32 1388 21 1742 30 1653 27 2407
3297 2.151609143585814 7.9998936363039199 10.79503366624526 135 130 109 1.3521120124060608 23 3278 32 3099 33 4065
2426 2.8234775650807107 7.937243700672977 10.439003659906307 111 104 86 1.150357284363166 18 2380 30 2805 21 2680 33 2158 23 1712 27 2523 26 2864 24 1904 19 2277
2427 2.9553827938231243 8.4992227468439072 8.4588432940632661 147 136 129 0.10882891766021707 18 2949 30 2828 33 3658
3818 4.0260881147468099 -8.6948460532154979 21.676254034580662 163 156 137 2.0706041015893826 23 2814 33 3609 21 1841 33 2355 27 1895 28 3039 32 3281 23 2792 30 2971 33 3600 27 3028 25 3113 25 3123 29 2964 29 3362 29 3369 26 3027 26 3276 24 3099 19 1932 19 3008 22 3337 22 3350 14 1540 14 2952
2428 4.0917461889268312 8.1249994082328101 7.5227379044066538 109 100 91 1.0469940591989289 18 2139 30 2833 33 1318
3311 5.1948474532999533 -0.76533132557137817 13.549292966586245 101 89 63 1.3976425089266986 18 2754 32 3361 33 4309 28 3227
2429 6.3279817283962307 1.0213376568982919 11.361566252972489 175 163 139 1.4368053651296366 18 2792 32 3600 30 2850 33 1843 27 3245
2796 5.2480273358917779 -2.3712906716377189 3.9317745168203397 160 149 117 1.8632974135978397 18 1739 21 1843 33 2387 25 651 32 1757
2430 -3.3200125654189212 6.1183973910324525 19.32259610511289 176 174 158 1.036367886164437 23 1820 30 2886 21 2850 32 3819 30 3329 27 3361 28 3465 25 1288 29 4117 26 2907 26 3538 24 2978 19 3644 22 3709
3305 -0.44525474424081551 -4.5267498406164526 22.53480989435047 142 138 126 0.74897773996116424 18 2725 23 2959 33 4186
5870 7.3019348506681494 -8.0251136073020977 19.783302588323355 161 148 116 1.4092323765254597 34 1966 7 1011 5 1023
2431 0.62891424483762826 -8.7565310323622008 20.872997586094577 107 100 83 0.97568225140745646 18 2562 30 2910 25 2679 29 3274 24 2572 14 2882
2432 8.443579683121694 -8.036417682130029 17.935928625578363 109 97 71 1.6432555896100853 23 2440 18 2572 21 2774 25 3049 19 2946 22 2259 29 3272 32 4345
2577 10.86209238115195 -4.3356079432116141 19.341259731426479 19 9 17 0.36813991076305252 18 295 30 279 32 218 21 288 23 256 33 299 27 229 28 280 25 271 29 259 26 261 24 264 19 241 22 283 14 266
3094 9.5781102190620562 -4.6278946707431174 19.744997269939105 184 181 140 0.84573621286588552 18 1142 33 1508 25 1064 29 913 26 1360 22 1676
2435 2.2639896357149705 -8.6968652718407942 21.553341574702745 168 162 138 0.51200755643547791 18 2589 30 2962 21 1830 33 2344 27 1891 28 3406 29 3339 24 2995 19 2991 22 3319 14 2745 34 2869 35 2122
5136 -12.951484988579288 -2.3054720186738087 19.674196615921897 243 243 241 1.38738733362663 32 1505 10 934 19 1318 22 1706 26 2239 29 1537 30 3771 34 896
2436 4.0210370813039811 -8.427405652540811 21.578846236895554 152 146 120 1.9421683825428804 18 2612 23 2604 30 2987 21 2225 29 3390 26 3426 24 3130 19 3035 22 3379 25 2754 19 1955 26 2709 30 2032 33 3332 24 2022 28 2076 14 2428 14 2972
2581 5.0429355019879409 8.633016949322208 7.4993436345615319 135 123 107 1.0003937038585078 18 320 21 311 33 275
2437 0.60584113918516935 -8.4213708424065405 22.147662625857215 43 38 23 0.50900378641617672 23 1519 30 2991 33 2255 27 1916 28 2080 25 2136 29 1706 26 1153 24 2024 22 2940 14 1923 35 2140 34 1772 6 250
2439 6.3213727828869315 -7.8612103179174362 19.929055681039475 139 129 103 1.4408683956799364 18 1759 30 2997 27 3046 25 3155 26 3670 24 3137 19 2476 22 2349 22 3400 14 2982 34 2427 35 2760 31 1293 5 985 23 1531
2585 3.6929992080873477 -1.2563611320058719 22.716981805489432 160 161 148 0.88764417558085451 18 561 32 312 21 337 27 395 28 516 22 336 10 358 7 275 31 454 34 435 1 245
2441 -0.27020500967023453 -8.2708785450970321 22.420336912713399 70 66 49 1.6850205439312116 18 2631 32 4149 30 3005 23 1977 33 3341 27 2470 27 3056 28 3748 25 2765 29 3418 24 3146 19 3053 22 2356 14 2990 35 2156 34 1960
2442 -0.068237135028681895 -7.9223683656350241 21.915351737508619 59 53 37 1.3448357532716668 18 1772 30 3009 28 3082 29 3005 22 2361 6 402 34 2431 35 3952
3611 -9.863450396650471 -0.82757125423314515 6.7375312409884192 169 167 152 1.4001661070761133 33 2574 27 373
2444 -0.77276108167791935 -7.3844736962947941 22.809848826004789 170 162 143 1.4390458371888877 18 1783 30 3021 27 2489 21 2844 23 2490 32 4182 28 2642 29 3031 26 2884 24 2628 19 2534 19 2554 22 3437 22 3439 14 3593 14 2461 34 2448 31 1568 6 412
2589 5.1701978084909204 3.6805515338044916 4.6388729427464295 165 156 127 0.57896405484183133 30 357 32 366 21 370 33 432 27 315 28 366 25 398 29 384 26 348 24 350 19 335 22 381 14 349
2446 2.8029214648782212 -6.4048989610277225 21.331333432541062 160 153 135 1.3600812012885908 30 3034 33 2676 27 3081 18 2392 28 3777 29 3466 26 2285 24 3184 19 2657 22 3449 10 2390
2447 9.737397849890737 -6.0302751826172543 18.911747027809948 131 121 85 1.334111814692855 18 2422 30 3038 26 2286 25 3197
3100 3.2010367878752559 -8.6014010887463019 20.907410850644695 135 127 104 1.8270409385154043 23 926 30 1995 32 2273 33 1611 21 1822 28 3013 25 2100 29 2439 24 3088 26 3257 33 2575 19 1910 19 2984 22 3312 14 2672 34 2526 5 374
2657 4.8188619736883958 7.1696163036940774 13.20847060141603 182 169 136 0.45116652819935416 32 576 21 788 33 857 27 612 28 551 29 429 26 538 24 541 19 487 22 517 14 510
2449 12.017470871824067 -3.4019796818256141 19.048051254186095 160 146 117 0.4611390335123603 18 2479 30 3082 33 4240 27 2022 28 3851 25 2862 26 2348 19 2528 22 4064 14 2523
3174 5.1970466782939591 -0.16222345750382847 4.2709831652324306 0 0 0 0.10193508519568401 23 2072 32 2463
2450 4.0503282723384828 -1.0679812436158824 22.426992610928522 96 95 90 1.2383424465028217 23 3016 32 2473 30 3109 21 1976 33 2656 28 2754 26 3069 24 2158 19 2566 22 3039 14 2064
3683 10.363640730124008 -7.619611271817627 19.0743714383423 147 135 109 1.0037907903509706 18 1382 28 1528 26 1424 24 1518 19 1400 34 1406
2451 4.8581056946129166 -0.49120705573967455 22.836097316306493 170 169 150 1.7817644588299664 18 1874 32 3383 30 3112 21 2377 33 3461 27 2938 28 2763 26 3074
2452 5.9347921921276301 -0.021726157644256835 19.526635487239712 76 62 77 0.47083527732834168 23 3023 30 3126 21 2956 33 4348
2661 -5.7813301364843435 4.3475935207761092 4.8040395645611111 38 38 30 0.75460881289198134 18 646 21 834 32 1150 29 1085 25 924 22 1057
2455 8.0537540630812838 -9.6278799083210362 21.701667617659101 103 88 64 1.7529613046253913 18 2654 30 3141 30 3140 32 3220 28 2385 26 3186 26 3187 14 2366 14 2875
3172 2.713341498307051 10.25727521433663 11.662123627123679 138 108 86 0.98604372654182559 18 1725 21 1749 30 2509 33 2207 32 4348
2456 3.6298234071172328 -8.5548794898231755 20.059530076723789 123 115 95 1.1934131125274769 23 2878 30 3181 33 3533 28 2986 32 3497
2665 4.6001877072064383 -0.91363248766490945 2.0444653154054069 135 124 96 1.5233814244755866 18 495 30 1151 32 769 21 859 33 1517 27 949
2457 3.7662791158442044 2.2191265053742573 24.250658424578841 117 111 99 1.995055335349218 18 2395 23 2559 30 3207 33 4464 29 3762 25 3445 27 3266 30 3211 33 4368 5 822
3182 6.0165238977660236 -6.3878387905077316 20.401940078019049 191 186 157 1.079475325922576 18 1247 23 1393 33 2417 27 1692 28 943 25 2802 28 3097 29 3042 26 1391 24 1482 19 2001 22 1624 14 1359 10 760 7 1039
2458 2.450357069700587 1.7914747503189865 10.894510640980869 161 155 133 1.5912290277157461 32 1808 30 3221 21 2479 27 2668 29 2401 24 2831 14 3564
2669 -0.67524412780215826 0.51008740031813893 23.033792380324712 38 37 42 0.6211967746015512 23 795 30 2202 32 1284 21 891 33 1202 27 859 28 776 26 967 22 784
2462 1.2402113232068264 4.8430432978600848 25.125586679895768 100 85 46 1.2898750713715725 23 3139 30 3249 28 3367 10 1952
2609 7.0174864855690116 7.6908807796855241 11.572341651315215 216 207 178 0.85337669619569168 30 365 32 379 21 532 33 392 27 331 28 543 25 407 29 439 26 358 24 360 19 348 22 391 14 357 10 207 34 287 35 300
2465 -6.041896790458777 2.3244886976237136 5.7944937505904379 185 182 173 1.4500150815896595 18 2865 30 3265 19 3658 28 3401 22 3584
2768 2.3813465612906533 8.0038130140426702 10.272618173166096 127 122 109 1.8785247788310089 18 2118 30 1231 21 1620 33 2166 25 2632 24 1618
3126 -6.520564967233792 2.748506542348899 4.8908254898286776 128 126 129 0.57732876946556266 32 2862 33 1950 28 2535 19 1253 30 1344
2466 -0.91976006709436997 1.0682676066414705 -2.3444436492222946 72 64 44 1.486303264618424 18 126 30 3282
3635 -7.074848139216444 2.1536526344012219 3.062918506415937 78 74 63 1.5411156021402863 33 587 28 347 25 788 30 247 26 1096 24 630 14 225
3794 -8.0877039812524174 4.3699580262430109 4.0502168938290151 64 61 53 0.70694837445170544 27 2916 32 4034 33 3030 28 3646 25 3904
5168 -8.9810057378000092 7.2270878371313492 22.458807268657427 138 130 117 1.0008466260350701 21 1219 32 1111 33 1090 10 1169 19 975 7 939 8 519 20 432 17 1621 12 410
2468 -10.528621494859248 5.2909665802503225 21.206664467883979 72 60 51 1.1542379624558525 23 3169 30 3291 28 3422 25 3593 26 3483 24 3295 19 3592 14 3218 10 2247 4 1463 20 2474 16 2125 12 1990 15 2129 9 1201
2613 2.3644756225700156 5.6834308024178117 10.098953011460507 154 148 126 0.892411477125304 21 546 27 306 28 555 24 389 19 490 22 509 14 514 34 379
3287 -5.8204419549462072 2.8953168734320838 2.7491864016283802 194 193 191 1.8097583629875746 32 2831 33 3921 27 2874 14 3358 29 4082 19 3317 30 3409 14 3354
2469 -10.682803768520488 5.3284034489679559 21.154576970193325 86 72 63 2.1672290920440944 23 3170 30 3292 28 3899 25 3600 14 3219 10 2245 8 1730 34 3375 35 3643 20 2470 15 2127 16 2121 13 1725 20 1761 9 1532 9 1537 16 2112 3 668 16 2124
2772 2.5606335664652713 9.6192391483610233 11.950175174048258 55 54 50 0.76763288154429943 18 2385 30 1356 32 2156 21 1629 33 2182 27 1766 28 2906 24 2528
3124 -6.907099251747657 2.3381134038624847 4.9997047599152458 159 157 142 1.3715245546646033 32 3762 33 1919 28 1746
2617 5.096015948423914 2.9625695251730995 4.5151278923252995 171 162 131 0.53028695894582512 30 547 32 596 21 566 33 621 27 594 28 570 25 809 29 743 26 820 24 815 19 753 22 1002 14 773
2476 2.4621995652376003 4.071559137575286 9.8292303855766523 109 95 86 0.39866988316203861 23 3193 30 3338 27 2789 28 3478 25 2457 29 3968 26 2521 24 2992 22 3726 14 3284 35 2646 34 2785
3295 -7.0516231351534699 4.3809563540659715 3.6693889060096452 144 142 140 1.6169887079350316 32 4053 33 4047 27 3455 28 1922 25 3922 29 2813 29 2815 26 3782 24 2436 24 3838 19 3409 19 3414 22 1434 22 4037 14 3471
2478 -7.9402195656734751 8.0253235014792583 24.933693304873632 72 55 39 2.0552301262799246 23 2670 30 3356 33 2512 27 975 30 1712 32 1735 29 2623 26 2912 22 1948 10 1560 35 1307
3289 2.4205483534099561 5.5814078082766674 10.196210668117097 59 50 44 0.50968263708857198 23 3250 33 3956 24 3597
2479 -0.86008182571953895 1.398954972191643 -1.8196457629000851 93 69 41 2.0705891851637883 18 1122 30 3372
3132 3.028378466459837 4.0381615095486039 9.5489568549098802 37 26 24 1.2372966064110011 23 1797 33 1991 25 1886 19 3255
2480 -9.0822921208554366 7.907121161272185 21.525624729705093 116 101 72 2.0486541706380654 23 2296 30 3395 33 2765 27 2838 28 3538 25 3759 29 4060 19 2883 29 2118 14 3150 25 3744 28 1254 21 1571 26 1864 31 1891 34 3517 35 1199
2561 -6.0254371887254052 -1.8357634976388335 2.8420593348363314 182 176 164 1.2351898525605243 32 24 21 152
3078 4.3650240831127007 8.3889952110575123 8.3178138689707488 147 140 111 1.9073030568671754 18 1538 21 1366 33 1303
2482 6.9728099009417788 -8.6448853445364744 19.968777878302568 160 148 120 0.50564300180258381 18 2664 30 3429 26 3217
3587 -1.3879404229887069 1.2353136734847667 24.46814589282949 100 96 86 1.3505785946898607 32 2517 18 1706 23 1670 30 2215 21 2019 27 1354 28 3114 25 1712 29 3714 29 3715 26 3129 26 3131 24 2504 19 2160 10 1653 34 1264 35 1778
2483 5.035736103138448 3.8049335368895836 4.8416943278503384 57 49 36 1.8349043849456261 18 2908 23 2728 30 3434 33 4457
2484 2.6175654959216836 10.115921815542855 11.730564064741767 137 106 87 0.71832355492334743 18 2130 32 4137 30 3527 21 2699
2565 1.5177140915618008 2.3752489207321603 12.54555643990204 67 62 69 1.2251171557360083 30 333 32 518 21 191 33 232 27 563 28 598 25 1170 29 1311 26 1289 24 1042 19 1560 22 2223 14 2880
2485 2.0249661509648313 9.9783103094333363 11.198402320984961 127 111 96 0.30242560351702263 18 2135 32 4146 30 3532 33 4137 21 2704
5178 10.293153210143167 -5.8981352553062312 18.850362165188756 100 94 74 0.96849828448237008 24 2649 32 4199 10 1252 29 1774
2486 2.8545722452137063 8.5176641921096063 8.4281026742559213 122 115 104 0.51660091816846787 18 2545 30 3539 21 2709 33 4147
2487 3.1160482460642589 8.9193217279315089 8.8765887414938582 142 134 123 1.7306169057651486 18 2953 30 3547 33 4158
3076 -11.042274475042875 2.4696433504618667 21.148322540820928 62 44 38 0.47256720151598575 23 1132 33 1286 25 1164 29 1159 3 272 15 523 17 601 20 571 11 608
2488 5.8393723388502039 -8.4148880701669562 19.730723584456918 160 150 125 1.1250075378031315 23 2896 30 3559 22 4120 14 3586 5 734
2569 -6.9732525952556008 4.3469067919892552 3.6238814933574415 141 136 140 0.87489639598680069 32 383 21 224 25 411
2489 8.6803729191456434 -8.5896805286304829 19.894441819646673 163 156 127 1.4817370130900542 23 2460 30 3566 27 2997 28 3188 29 3316 26 2988
3086 -7.2662726236302095 3.0796435505549948 4.0400445221591097 194 194 192 0.45218199426538941 21 1574 32 2011 33 1414 27 1500 28 1109 25 1311 29 1397 26 1526 24 1346 19 1462 30 1380 22 1382 22 3834 14 1456
2490 -0.21147813556725051 -8.6554735881090892 21.704829610835201 113 108 88 0.4367384176033996 23 2892 30 3582 28 3427 29 3332
3595 3.7369866735403128 2.3162600569491718 22.1401404218884 153 149 137 1.7795606749349031 32 1803 18 1690 23 1901 21 2039 33 2774 27 2117 32 2659 33 4477 29 1943 26 1697 26 4012 24 1625 19 1526 22 2653 30 2238 14 1163 18 2242 34 2195
2492 -0.28940460525744005 -8.6453897534127968 22.382728304919695 110 105 86 0.385556979958524 23 2781 30 3607 21 2809 33 3604 27 3038
2573 4.7045764281025555 7.1050784179076292 13.584415981789586 156 148 125 1.5493585465977875 21 235 27 835 28 2454 32 3966 24 839 27 3426 26 540 25 830 29 773 19 788 22 514 14 578
2494 11.018943786778454 -7.8055302262618014 18.608576423289581 185 171 143 1.8829004060095669 18 2623 30 3618 33 2375 25 2740 29 2978 26 2699 24 2005 27 2430 32 4331 25 3138 26 3501 30 3622 33 3337 22 2332 22 3374 22 3391 14 1410 14 2974 35 2031 35 3997 34 2471 31 1696 31 1753
2495 6.1921962625943703 -8.075380551363148 20.299054024908465 63 53 28 0.389411184310122 18 1751 23 1529 30 3627 21 1855 28 3055 29 3836 24 2438 19 2466 22 2339 14 2425 34 1969 35 3110
3084 12.731718659894252 5.673650104857364 18.280911096924875 222 212 178 2.0990907661351659 18 1007 30 1355 32 1103 33 1393 27 788 28 640 25 862 29 1027 26 1014 26 1825 24 618 19 1644 24 1315 29 1358 33 1083 28 1644 30 1686 32 1104 22 1354
2641 2.9137820369747209 8.3329233852629141 10.323220144852055 124 121 106 1.0780725167407537 30 514 32 404 21 713 33 475 24 514 26 3824
3878 2.6366565359570218 6.3578473257296544 10.069455748720298 137 126 105 0.62881939144868204 27 329 28 310 30 363 32 373 33 386 25 406 29 392 26 357 24 356 19 344 22 388 14 355
2498 11.151869655075469 -7.7932928691340022 19.235292673607134 76 63 37 1.924711736733618 18 2633 30 3642 27 2451 32 4015 28 3732 33 3641 24 3135
3667 3.2906137493571022 3.7014456038429122 8.9113135969068953 147 138 121 2.3525793773779942 23 3190 28 1080 21 2554
5921 -12.876525182395335 -1.7830537456622355 19.253092464751088 247 246 244 0.14484802245004336 34 2093 7 1403
2499 5.2034091216670273 -6.4196661725331721 21.383424744798653 185 178 152 1.5711040262129232 30 3670 33 3681 25 3203 27 3085 21 2855 28 3779 30 3669 29 3468 29 4187 26 3853 22 3459
5200 -5.8950083542797866 2.8296534364187496 6.6514093583413691 154 149 145 2.3898452673361188 28 2496 10 1421 25 3612
2500 5.529220046267036 -6.4110003655600396 21.499182308305528 193 183 156 0.67392389673908004 23 2934 33 3686 25 3979 19 3208 34 3084 35 3207
2645 1.952245558321045 7.8295010136048466 10.640540071772369 6 1 0 0.67798792279503872 30 853 32 914 21 722 33 882 27 866 28 540 25 586 29 788 26 878 19 808
2501 9.6653144260317827 -5.3101253116825822 19.297807423126542 94 88 66 1.1457540259623826 23 2482 30 3688 21 2880 29 3505 10 2135 28 3795
2503 11.522427489373808 -5.4029843631616012 19.379920831208143 108 99 70 1.1560390014022466 23 2813 30 3694 21 3233 33 3825 28 3792 25 3227 29 3506 22 2482 28 2685
3877 -0.26938384796792159 8.885799156640191 18.431839674014316 152 142 113 0.3875208860588526 21 377 27 321 28 373 30 359 33 436 25 401 29 387 26 350 22 385 14 353
2504 9.6120467423222617 -3.20859659504546 19.144763978261807 179 166 124 1.0261293464075634 23 2879 30 3715 22 4066
2649 -7.8629175026081404 2.6820206166657998 4.6466522779706345 120 112 109 2.0103006208585934 32 3811 21 739 25 3551 30 2399 29 1025 30 750 26 1491 24 1724 30 2400 19 2802 19 3671 22 1084 26 2670
3886 -7.4004507344442887 2.0876817408109511 3.9209910502346603 111 103 88 2.2957401847270589 27 1806 33 2840 25 614 22 3618
3166 1.8267466819865104 8.0773559826630343 10.677818549173889 130 125 106 2.3107460626511349 18 2382 33 2159 19 1139 24 1373 29 1485 22 2084 10 839 27 1262 25 849
5727 -9.272915773873649 6.1685188860686226 22.632451621476296 48 45 43 1.7070647075431111 32 1911 23 1835 30 2345 21 2107 33 1948 27 2207 28 1764 25 1832 29 2048 26 1802 24 1702 19 1627 22 1897 14 1641 10 1962 24 3461 27 3344 28 2928 14 3237 25 3627 26 2887 34 1636 35 1375 22 2678 35 2595 29 4485 31 1418 8 888 11 1098 17 887 20 750 16 601 12 817 15 570 13 514 9 413
2510 5.1535253615851584 1.4621394220510779 4.5119214676030861 147 138 107 1.4378444904062238 18 1146 30 3752 33 4429 25 1759
4908 -6.53683834234978 1.8947014684830312 4.6106997879001659 183 180 168 1.7878358091735602 33 1885 26 1299 19 2716 32 3703 21 2518 22 2272 14 1204
2511 2.8441296987324582 4.4583748290331995 9.688022542829307 76 62 51 1.4883545925321302 23 2691 32 3883 30 3770 21 2151 33 2639 27 3393 28 1818 25 3740 29 2646 26 1518 24 2336 19 1689 19 3288 22 2764 22 3307 14 1516 10 1482 34 2341 23 2282 35 2695 31 887
3885 1.0599119450349705 -2.8877078820152078 22.988180034350336 84 77 67 0.73877347545817662 21 704 27 1113 28 1432 30 975 32 1498 33 726 25 605 29 1547 24 781 19 876 22 631 14 660
2514 -11.531150402850869 1.3994670993867022 21.546252536256993 228 225 210 0.24264785573716863 23 3101 30 3795 21 3015 26 3126 19 3631 14 3515
3747 -5.8623806139536923 2.9131893364847343 2.5335586782854103 162 160 161 2.1060541620218634 33 3930 30 2520 19 3332 29 2705 25 3798 28 3578 28 3579 26 2772 14 2198 14 3368 14 3370 22 3880 22 3878 25 2547 32 2046 19 2200 30 3417 32 3945 24 1811
4912 4.1033567420370476 0.090447234014369646 22.245099052023328 140 137 127 1.9936504251158349 32 2488 33 2265 29 4431 24 2181 19 2134 32 2584 18 2535 30 3131 23 3025 21 2401 27 3201 25 2933 18 2768 30 3130 21 2963 33 4357 27 3200 29 3662 29 3663 26 3090 26 3091 24 3278 24 3753 19 3471 22 3053 22 3056 14 2583 14 3144 10 1673 34 2588 35 2935 31 1525 7 1414 5 665
2515 1.5396629453322264 -7.8379524631381203 22.014209159918842 88 83 75 0.88039506197980699 18 2637 30 3799 21 2291 27 2923 29 3010 19 1842 34 2437
2516 -5.8619857889190756 4.6859276519542652 4.0172627339454801 77 72 65 2.2772968485807166 18 2966 30 3804 28 3670 29 2879
2725 3.0778733506908096 6.0814058731797491 10.01867033615048 155 150 130 1.5754009210180393 30 1792 21 1322 33 2990 28 1289 10 1188
2517 2.1956646097161623 2.2279000704824847 9.430449234839708 95 45 34 1.1247960777266099 18 624 23 427 30 592 32 1438 18 1159 21 595 21 1169 33 668 27 756 28 595 27 426 25 469 29 704 26 618 24 587 19 523 22 678 14 604 35 411 10 338
4907 -6.4277768316088766 1.958263054848183 4.4311714014489167 114 113 105 2.638418346704964 30 1298 33 1893 19 1206 21 1188 33 2812 26 1749 22 2518
5210 -2.5142498560284841 8.6101465733319582 20.98975307818133 160 152 129 1.5009584363489807 18 2064 30 1760 10 1514 19 1740 25 2536 26 1902 28 2628
2519 -0.33604395063505882 -9.029540227037602 22.24784734142656 77 72 56 0.68571481363682818 32 3520 18 2177 30 1981 21 2736 23 3297 33 3549 27 3015 28 3006 25 2696 29 3294 26 2974 24 1988 19 2956 14 2400 34 2394 31 1342 7 1460
3236 2.8076828861891197 8.397626838305257 8.0168854795189333 105 98 90 0.90929610014975415 21 1761 30 2832 33 3131
3893 -1.1419149434950782 -6.9172335511792413 22.871620243468623 206 203 188 0.43541501163816015 21 851 23 555 27 945 28 944 30 753 32 783 33 773 25 668 29 607 26 889 24 1178 19 681 22 857 14 703 10 696 35 830 31 813 6 116
2520 2.298922761272475 7.227963639834325 10.912284328869953 136 124 91 1.5438422650984829 18 899 23 474 30 525 32 1155 23 1719 21 992 21 2672 33 460 33 2105 27 623 27 1549 28 1134 25 579 29 1092 26 1067 24 527 24 1585 19 1030 22 1064 14 497
3246 10.862497156481878 -8.3002319636601154 18.415231440726096 67 52 36 0.43587162395703044 18 2581 23 2454 33 3254 27 1851 29 2300 26 2961 24 2570 19 2380 22 3259 14 2382
4927 -0.6396344582287613 0.88255143375182632 -3.8198363184416575 56 45 27 1.7849779025038646 33 4426 19 3339
2733 5.3634641643253937 -1.6068473788703115 20.60415340397358 197 191 169 0.93795696279003093 23 1460 32 3356 21 1421 29 1856 19 1295 22 1732 14 3296 5 548
2526 10.648199915809979 -8.3771629289870546 18.566827710561725 72 65 47 0.53806112602970002 32 3227 18 2577 30 3326 23 2898 32 3482 21 2775 33 3544 27 3499 28 3172 26 3197 19 3645 14 2886
2673 5.131481103157074 7.0875128120060786 13.948064736570153 188 178 141 0.95024318268731756 30 831 32 888 21 923 33 852 27 833 25 914 29 772 26 1048 24 837 19 784 22 1036 14 797
2677 2.5722052781591342 6.3076779720088458 10.229143539852425 48 31 21 0.41887689795018823 32 1315 21 935 30 1799 27 1235 25 1353 29 1438 26 1125 24 1222 19 1019 22 1046 14 1100
2533 5.1510962197917278 5.0460190479530338 5.1861533040172132 148 139 108 1.6650198523610893 32 3184 30 1643 27 2913 28 2948 22 2886 14 1069
2535 -6.2407310918051788 8.1641469144216963 27.72129933953514 124 110 82 2.0146009759155383 18 1035 30 2436 27 2225 25 1867 30 3335 22 2713 24 1738 23 2419
3188 -0.59289792017228204 0.709520763900641 -3.995838680844106 0 0 0 0.065640410864694854 30 3058 32 3638
2681 5.2467249923030312 -2.5405367893860613 3.9585401210634896 199 193 160 2.5357036867832567 32 2249 21 940 29 3381 28 2041 19 1415
3198 1.7883482036904574 1.0560564408610424 5.6584167229292204 0 0 0 1.9285078709540238 21 2454 32 3620
3707 2.0342426169550962 -0.37856627923784353 -0.49773333528537811 154 145 116 1.4039621636093371 18 168 28 1965
2540 -6.4089479812634664 4.050132224962792 4.2556439609946972 6 5 3 2.0144074685596109 30 14 32 9 21 8 33 14 27 11 28 13 25 9 29 10 26 11 24 15 19 10
2685 2.9097360178965594 8.4967071808336296 8.5034951336652824 75 68 60 0.49588393479463694 18 2137 30 1893 21 966 33 2213
5759 10.777607067638092 -8.3126789596571946 18.283257273264486 74 62 36 0.1922612209396482 31 282 34 282 35 307 7 182
2542 5.3427090452767816 7.4021540690890539 7.1365748021200242 180 170 143 1.1007050464905066 18 14 21 16 33 18
2543 -1.2634297941173283 0.78845784825638909 -3.5901738609654243 174 168 154 0.5686734619116095 30 3171 21 18
3196 2.8847442913364807 0.70857870044534477 13.828622118106853 218 215 210 0.30693437269383889 21 2424 30 2666 32 3570 33 2724 27 2085 28 3266 25 1152 29 1910 26 1556 24 1026 19 1516 22 1776 14 2111
2544 -6.5270502679526876 4.6689526598767577 3.5754505334521607 151 150 146 1.6679262681798903 32 18 21 19 33 24 27 32
2625 2.8862784387535565 0.91886382784372278 13.38671702848187 164 161 148 2.0918923343644269 18 631 21 649 27 735 25 749 24 2207 26 2486 27 2091 14 1263
2545 1.8281642533232925 9.5701016085094928 9.7717863761700539 2 2 0 0.85509768378944606 18 52 33 73
3142 -6.0345703413660541 4.5385955266673932 5.0686481533262855 3 2 0 0.80154251683173849 32 2089 33 2090 22 2053 30 1816 14 1782
2546 -4.7075417047702999 4.5628656591106136 6.2466285105271808 118 111 92 0.75060463126224031 30 38 32 47 21 42 33 46 27 45 28 51 25 49 29 49 26 49 24 42 19 39 22 47 14 46
3651 -8.5267298586171041 1.1069162808782054 5.427880198977304 122 110 92 1.1844189269589953 33 2721 28 679 25 3763 29 2343 24 2806 19 2169 22 2959 11 1092 20 730
2547 1.471961228649505 5.3732297300968925 9.7767300730220477 153 145 132 2.2093323481291902 30 36 32 49 21 45 33 81 25 32 29 34 26 44 19 27 22 38 14 32
2548 10.412520417163643 -6.4679419121286186 19.139274417545135 190 183 155 0.33124552682379521 18 76 30 73 21 54 33 63 27 58 28 73 25 67 26 74 24 57 19 49 22 115 14 122
2549 3.6390021873545551 8.1988959945404254 7.068794527258901 141 133 120 1.2297005695804246 18 85 21 60 33 110
5242 8.6451388082470899 -3.3265671850585377 18.669887178410011 165 159 125 0.19725609865054217 32 3413 10 1725
2551 -4.2592177165086227 4.7503241189311076 6.2522890037650969 43 37 25 1.3689462867722793 30 55 32 80 21 68 27 63 28 56 25 74 19 3368
3140 -6.6918714682177294 3.3682477517080178 3.3161319040641515 188 186 187 1.620007848792246 32 1136 33 2053 27 839 21 781 28 1122 22 1037 14 1751
2633 0.10985146166885842 10.457333304557254 10.852913181297856 22 13 0 0.60581716185004786 18 858 21 694 33 1168
3150 -7.7319798542389382 4.4439001742448951 3.8767593706038097 30 28 29 2.5342925477897622 32 2207 33 2126 27 2366 28 1924 26 1981 25 2606 29 2219 30 2602 32 3089 28 1918 24 1880
2554 -7.0507654506679662 2.318073911891176 3.6550497980456305 61 56 50 0.59761730244511668 30 93 32 85 21 97 33 211 27 209 28 213 25 220 29 208 26 216 24 209 19 100 22 188 14 178
3659 -7.6519250249412991 2.922788647772427 4.1161969851659856 82 79 69 2.0834938802706056 32 2923 33 1400 28 838 25 1304
2558 3.9488803160752028 8.2143425759547384 7.8032701356911112 58 57 52 0.98745146413979179 18 124 21 115 33 115 30 193
2559 0.92588881365789444 8.6878626782359838 8.8169324105735676 12 11 7 3.0142473989143035 18 125 21 116 33 74
3148 -7.5301811859854713 4.431683264948922 3.9265700395504304 40 35 39 1.7896489396230835 32 2110 33 2120 27 2360 28 1917 29 1470 30 1829 26 1975 19 1132 14 2271 22 4024
2560 -6.9561460855029562 1.7546825009888338 4.2877302997217583 137 131 115 0.78941677090301798 30 87 32 154 21 118 33 152 27 91 28 218 25 195 29 197 26 89 19 93 22 78 14 90
2563 7.5029478828471339 -2.3950757853714979 20.019396877302594 165 155 128 0.86659658168541676 18 230 23 245 21 177 27 173 25 179 29 176 26 183 24 175 19 158 14 165 10 166 34 188 35 200
2564 9.0031709201548988 -2.2013779669874571 18.110793866502519 140 130 94 0.92399037837621589 18 130 32 284 21 179 23 153 33 308 27 243 28 266 25 181 29 248 26 250 24 254 19 230 22 235 14 248
4023 5.0211641492080554 1.0314279729365174 3.5955979538507665 144 136 105 1.4201854386804573 33 3423 25 2265 29 3874 26 3346 19 2662
2566 -3.7834676051752378 4.4636426732140473 5.5487980365359082 174 148 89 1.2863221950370685 32 401 21 202 33 248 28 406
4017 11.397712587914114 -4.1277860102349875 19.377492469173312 119 111 88 1.1286658577949662 21 1389 28 1966 30 3712 25 2223 33 3438 29 1815 19 1334 22 2476 14 2016
2570 5.759604094809089 6.941207881506724 6.5801246685737311 184 174 149 2.1176656094599786 18 50 30 870 32 537 27 436 21 225
2571 -5.099440336561277 4.5477051657824354 6.383976757786388 101 97 86 1.3026981748871038 32 370 21 233 25 400 24 305 22 276
3514 3.0377120657696413 1.8469460912573823 14.231450596527205 132 133 117 1.9039972661898517 23 2576 33 4121 25 3452 29 3767 32 3649 26 1700 24 2491 26 3348 29 3771 19 2668 22 2655 27 2657
2574 -10.448396743469029 6.6350597669224776 21.383820570020912 154 131 98 1.3159122045587905 23 223 30 240 32 260 21 244 33 207 27 201 28 233 25 232 29 287 26 307 24 300 19 291 22 264 14 219 10 222 31 170 34 212 35 178 7 206 27 237
4025 3.5497314470452417 1.0706119878504023 1.4851472016954306 181 171 144 1.9209262339104232 33 1049 29 3796 19 2678 22 2187 29 2414 14 1565
2575 -6.9069660728859406 2.4933826458044437 4.5359905068953843 198 197 192 0.32029971415726088 30 246 32 279 21 246 33 235 27 268 28 236 25 234 29 219 26 310 24 226 19 201 22 263 14 221
6019 -3.2013911692055093 5.7923533906324689 20.125811054629203 116 110 95 1.7291465421617525 31 1870 1 876
2576 2.4979619020600476 2.6971963791089957 16.576821137721129 162 159 142 0.86219667569904224 18 219 33 233
2579 5.9579922160447758 -4.0317856070313152 20.671270406165132 154 152 131 0.66245672217026241 18 291 28 277 26 258 24 261
3458 -0.77531448718825058 -0.51682144853523948 1.897896873722875 162 156 140 1.7343806848812935 23 1563 32 2406 27 1799
2580 -0.02604839450383864 12.075740423868707 12.911603869292948 6 3 0 2.1670588481714272 18 854 21 309 33 274
3975 11.508836040870346 -8.1368919048298132 17.338242347000403 119 104 73 1.6521966475126879 21 1005 27 1607 28 1214 30 1213 32 1261 25 1612 26 1464 24 1557 19 1888 27 3429 32 3474 22 2159
2582 5.8121077699130899 8.3660312673146606 7.2949904950689657 103 93 76 0.62893822866473204 18 322 21 314 33 272
3969 3.450202697702232 -1.4158356563362724 23.253384259604754 116 112 102 1.0771413026169789 21 1975 23 1638 28 2750 30 2162 32 2469 25 1570 29 1177 24 2155 14 2063
2583 4.2967275451844698 7.9094784988284763 7.4603486908071606 169 162 133 0.80239638693119286 18 190 21 317 33 265 30 380
2587 -7.145831528838495 1.4497173500469585 3.8071362979707799 93 85 74 0.51951243346304099 30 330 32 269 21 349 33 569 27 263 28 251 25 428 29 233 26 445 24 444 19 210 22 358 14 318
3466 6.4155168939637708 -2.9787375605914397 21.326669374301996 200 195 176 1.3805537936082755 23 1623 27 2031 25 707 22 1709
2588 -7.0439546882200448 2.3843622360081249 7.4526364838927108 163 160 153 0.55603120193739586 18 215 21 354 33 398
3983 4.5675307020227134 1.067294087809546 3.5665235627283418 202 193 157 1.6071384382431455 30 2234 25 1735
2590 4.9590716841317608 3.830967632294628 4.7860999658013972 70 62 43 0.31074261120190066 30 391 32 367 21 371 33 451 27 318 28 371 25 496 29 470 26 542 24 547 19 491 22 508 14 515
3977 2.2196913333529578 0.26638771578549592 -0.90669491848287054 198 194 176 0.99394434499181683 30 701 32 539 33 2498 25 1646 26 2272 27 382
5518 -15.042888403861904 -8.1100936317912744 16.231045630746753 178 172 156 2.4844689153577963 35 1759 24 1956 27 1832 22 2132
2591 5.1533929004816716 3.9600918955528979 4.6604651462187432 162 152 125 0.76463412359005289 30 360 32 400 21 373 33 435 27 322 28 374 25 402 29 388 26 353 24 353 19 338 14 512
2592 -2.0980824283879604 8.9650887156886903 18.289498826787206 134 106 59 1.6479503584796114 18 401 21 378 28 314
2598 5.1198092865303275 8.343215089308746 7.7028554440692591 176 169 141 1.1356339568483211 18 415 21 394 33 269
3921 6.175782092996501 -4.1399689518386795 20.602123556358038 145 137 118 1.2591453180394414 21 1098 23 821 25 1072 29 626 22 1685 14 2015 31 790 34 1173 35 613 7 583
2602 6.2659239389145567 -1.2369040735025143 13.375681737682124 215 208 189 1.1931730524412312 18 534 32 495 33 548
2603 6.0295867101714808 0.74022223468470483 16.830281030867035 54 45 38 0.75754290009856684 30 319 32 319 21 504 33 563 27 411 28 260 29 238 26 241 24 244 19 220 22 249 14 239
4309 5.4733458257075958 -3.5540456955452902 4.0758509324729681 153 144 111 1.4981683239322863 21 1790 32 2219 29 1635
2604 3.3171355735233918 1.7955947181788257 17.609600409394393 76 78 67 1.6997700267549596 18 268 21 507 33 672 30 1016 32 1313 27 1154 23 336
3935 -6.8471697182443316 2.1381510942253921 5.0056672691871791 157 153 144 1.581378949464415 33 2831 25 1247 26 1757 32 1467
3272 -6.0971253322859278 2.6036325781121361 6.9531101568544678 239 236 229 0.62095043932330507 32 2784 33 3738 27 3334 28 2478 25 3579 30 3277 29 3270 26 3468 24 2919 19 3586 22 2422 14 2763
3929 2.0097047318856536 2.8076560320187776 11.494547513312371 162 157 143 1.8766694020149448 27 1416 28 1700 30 1677 33 2267 25 1181 33 2841 29 2474 24 1049 22 1079
2607 7.1241049679701831 8.2676052170192698 9.5462392863430416 171 161 125 1.3070985358500271 30 510 32 548 21 522 33 479 27 639 28 394 24 558
6051 -0.86778856985810393 -6.2598006043536323 23.002217999383635 108 102 88 0.78355881906668834 23 1579 31 1273 5 433
2608 2.0344417839178659 8.2177917260820266 10.375222320961349 121 118 105 0.44008935647656727 32 533 21 524 33 473 29 576
4306 0.31659244551920257 -6.4758575814124093 8.8786163298575573 140 135 106 1.7939037887004199 32 2212 29 1603 26 1577 24 1946 19 1860 22 2115 19 1859 29 2896 14 1451
2614 -7.3885199559863679 2.7791281157590553 4.1600826212275237 129 121 118 1.5286754629640797 32 637 21 561
3280 -7.390193949936231 2.9632145747625698 4.4882195090889416 201 198 193 1.6746707916294332 21 2159 32 2912 33 3832 27 2822 27 2824 28 3517 29 2629 22 3766 14 2146
4001 -4.9440931071970526 4.3282836208488984 6.6161368860819953 50 37 19 1.4748665830177967 27 2881 32 3946 33 2045 25 2042 26 1917 29 2159 24 1361 19 1479 22 2108 14 1740
6069 -8.9486621209926138 4.2375498549782238 22.955483929153633 85 82 77 0.18182599058698964 7 1194 5 566
2618 -6.9655085054210755 2.5748211717949783 5.0071164781873359 169 167 155 0.39071887654338183 30 631 32 653 21 572 33 645 27 783 28 1071 25 790 29 724 26 797 24 627 19 559 22 696 14 583
2619 -7.260463075035501 2.8920909730374014 5.0363334326892728 158 152 140 1.5264922748278049 30 555 32 644 21 575 33 638 28 740 25 796 29 2081 26 806 24 726 24 810 19 657 22 708 14 762
3498 0.010234636116314455 -8.1402458991971205 22.384199436730331 108 103 84 0.21433542833902 18 2632 33 3345 27 2474 29 3003 24 3150 19 3054 22 3415
2622 -6.837213042684481 2.7118648307110016 5.0021693760133923 88 83 69 0.90216628512036279 30 558 32 650 21 602 33 594 27 589 28 575 25 464 29 485 29 1020 24 607 19 509 22 490 14 800
3288 -6.4601385839337979 3.3384315981671238 3.3054038440791769 111 110 106 1.7915740583871285 32 3961 33 3942 19 2478 30 3436 14 3385 29 2732
4009 9.0762857658381435 -5.9437066613145824 19.463580857812236 106 100 80 0.60577587013337386 21 2279 27 1975 30 3673 25 2193 26 2299 19 3085 22 1649 14 2319 35 2804
5550 19.376670945515567 0.79258317282463409 14.530309318068156 137 127 102 0.9570739675537977 22 145 35 2372 19 360
2623 11.201719330228663 -1.4497116216048345 19.990504785456672 185 176 147 1.1606202771247081 18 724 21 631 27 1128 32 2465 28 2231 25 729 25 1608 26 2276 24 681 22 947 10 954
4313 2.2291738585049412 -8.3200695106125711 21.704697528777334 113 104 87 0.70691875320282638 21 1853 25 1453 27 1647 30 2031 32 1613 33 2377 29 1708 26 2127 19 1956 22 1231 35 1830 7 1013
2624 2.063046818160025 6.5981550585442843 10.22937769132146 151 144 118 0.70708290200732815 32 903 21 644 33 456 28 874 25 602 29 433 26 533 24 533 19 478 22 522 14 502
2627 -7.0186196616659773 1.4467753998031267 3.7624639551016394 174 166 155 1.4852788223305269 32 1072 21 658 25 1743 29 1282 28 2347 26 1710 19 1542 22 2196 14 2313 30 2732
2628 -6.5877500410852612 3.4427185249177361 3.258694725422342 167 165 166 1.2215341773343162 32 1139 21 659 33 1186 29 4451 26 1050 22 1039 14 1049
4087 4.8113558901279259 0.7936824888159737 3.3358601393751255 177 168 139 1.2122119476521813 30 2696 32 2626 27 1355 26 2504 33 2741 28 2838
2634 2.7837352384387741 10.36579869893693 10.741487772758054 141 129 109 0.36624780174924026 18 553 21 695 33 911
2635 2.9588717051688427 8.7417271059896446 8.2466216589415886 118 110 97 0.35873955513099726 18 868 21 697 33 1165
3578 -6.2896319990341967 3.639295544871282 3.1764794871593458 160 156 155 1.9788389087780378 33 3987 27 3438 28 2843 29 4191 26 4026
2636 2.9798468680878654 10.450737791007365 11.028394512407518 90 67 53 0.57261406119997271 18 870 21 698 33 1163
4095 1.2039151837797863 -8.6500471278306303 21.607792240135009 114 109 90 0.39246950134454356 21 3223 27 3020 30 3589 25 3106 24 3093 19 2994
2638 5.6245056885455629 6.7147305906629837 6.2289120604683035 184 175 144 2.0993044584527571 32 3141 21 708 33 3350 27 2406 32 3145 33 1281
4089 5.6009324280683135 -3.967547251290688 4.0739063297611313 197 188 159 1.4930753954535727 30 2883 25 3012 27 3125 29 1219 29 1576
2639 -6.5186896419135758 4.3706806351046819 3.3281814926627722 148 144 145 1.3537669382219 32 917 33 396 27 345 29 401 25 416 26 367 24 373 30 517 19 355
2642 3.1016899216635099 8.2302127693199392 10.071304407454328 124 118 102 1.03580101819935 18 1101 30 1872 33 3617 28 1950 25 2644 26 3820
2643 -5.0787423446581821 5.4179118657033776 6.0841037166992376 26 22 10 2.1177045097060532 32 908 21 719 27 2357 30 1647 26 1976 24 1873 19 1131 25 3917 32 4040 25 1377 22 4172 14 3459 14 3466
2644 5.0004882691755395 5.5652419911689712 5.2518200133352009 194 185 154 2.9216905855271236 18 273 23 641 21 720
4039 7.1043819677997568 -8.133792661373505 20.138957188715921 174 167 139 0.41745919249645524 18 2616 25 2400 29 3391
6101 0.21453331323465594 -8.4600952212827885 22.85124478509902 79 76 61 1.1425299408508682 31 1556 5 1161 34 1958 35 2154
2650 -10.738949430557854 6.8345467773242872 20.948842157548587 155 136 106 1.4026829286942957 33 1086 28 1090 30 1707 32 1960 29 1370 26 1018 24 708 24 1328 19 971 22 997 14 1267 10 1177 34 699 35 1869 31 568 31 1157
3371 -7.0900356444029322 2.0105862899284284 3.6658935980881533 72 64 57 0.74113749552354546 33 213 27 211 28 215 25 197 30 217 29 190 24 215 14 177
2654 2.2347408506580182 1.9595475277145531 -0.52412468708778692 111 102 85 0.084681412634033087 18 579 21 772
4041 2.286831514039795 3.6711848625146302 9.5366418834775182 50 38 30 1.0824409373593469 23 2238 30 3763 28 3448 25 2433 33 2936 14 3251
5582 1.2523222738928694 -1.8516242427318792 22.762946471796379 155 152 143 1.1055913289282169 22 2533 34 1501 35 2890 24 3436 26 2267 30 2616 27 3179
2655 -5.9589894098546647 3.1753735453281244 3.6960168918426408 163 160 155 1.608801042133378 18 894 21 782 28 1117
3884 5.4323501417609501 -4.4155705366822513 14.779940912138576 0 0 0 1.0355229947566413 18 1071 33 968
2656 7.5454511982186983 7.2374720050173549 12.921268200828813 207 194 162 1.6404955967456392 32 573 21 787 27 614 24 540 14 508
2659 -6.1756679765261744 3.501530848664193 4.0925153091062452 41 42 36 1.3889089087140247 30 1078 32 1132 21 803 33 1112 27 1522 28 1285 25 904 29 2716 26 1041 24 1366 19 1007 22 1031 22 2982 27 3425 29 4109 14 1039
3474 -8.6314216446869363 5.6804578991857513 22.157814536217511 29 23 25 0.28974622110973447 18 1989 27 2204
2660 9.481889473217219 -5.5586136530184973 19.748983160506324 28 23 20 0.60474999955152409 23 749 21 805 25 672
3991 2.0896853430055273 4.3842074272744771 10.451770827824358 48 48 36 1.2619103141521961 21 1217 30 1287 33 3199 25 1895 29 2100 26 1844 24 1760 19 2843 22 3751 14 2856 10 797
2666 7.6714944574424475 -4.0491089525952271 20.44461366398437 149 143 111 0.70478013807818307 23 575 21 878 29 924 19 666 10 527 34 1174 35 797
2668 12.451906119280123 -0.28723063266003052 21.214904526032139 202 195 154 1.6854597197939172 18 423 23 410 21 882 27 853 25 1140
3999 3.2697361523038371 7.4758021027982027 10.409645108081031 138 130 117 1.7593773069920207 23 1253 25 1992 29 2802 24 1159
2671 -6.6349554756917195 3.5308726397711365 3.3490916547353544 168 168 168 1.3187692294092845 30 1087 32 1314 21 921 27 1237 25 1175 29 1071 24 1835 19 3358 19 1012 22 1042
6115 -0.80475063430201876 0.67091890779177543 24.379760482873557 143 141 129 0.62461513945257918 35 3464 5 1452
2672 -5.7062230436976096 2.8401778761904275 2.4937584784777926 170 169 167 1.4359095264115147 32 2849 21 922 27 2878 25 2537 24 3843 19 3322 29 4083 22 3865 26 4017 14 3364
2675 -6.3327297529354132 3.1629308658944768 3.201362861424959 191 187 186 1.2448192423175044 30 822 32 883 21 932 33 612 27 834 28 863 29 766 26 840 24 1118 22 1397 14 793
3554 12.379299172626078 0.67976886440681494 19.745682182685051 193 184 152 0.81377618056518275 23 3033 27 3223 28 3268 25 2964 33 3466 29 2315 26 3833 19 3555 22 3098 34 2617 35 2970
2676 2.0159417101147219 6.3733751970146191 10.587600339866817 29 18 9 0.63451071222418998 30 1091 32 1140 21 934 33 1122 27 1231 28 1125 25 916 29 1073 26 1055 24 1135 19 1013 22 1043 14 1052
4071 0.22073067182145453 -6.4926355570398195 21.530237637049908 96 93 77 1.2466346942717901 23 1555 27 2509 32 2947 25 2797 26 3841 22 2398 14 1968 35 2788
2678 4.2678654717945443 7.0217713939068434 11.853229686468666 179 164 133 0.41729998912878313 32 897 21 936 33 1126 27 844 26 857 24 846
4065 0.059458669782365393 -8.7940158437004996 21.973921230804411 75 70 50 0.85417395405573993 23 1097 25 2718 19 2986 34 1921 6 969
2679 2.2592843811133752 7.3394038876809446 12.804422497697431 185 178 152 0.43892282132288674 18 2095 30 1093 32 1242 21 937 33 1124 27 1536 28 870 25 919 29 1078 26 1589 24 1138 19 1021 22 1049 14 1101
2682 1.6359506151417407 7.9587297078158352 11.381384050959651 141 135 119 1.5865571440188038 30 1112 21 951 27 861 26 873 19 804 10 835
